1166 1166 1165 1166 1166 1167 1165 1166 1166 1166 1166 1164 1165 1161 1161 1162 1159 1158 1158 1161 1158 1159 1160 1160 1161 1160 1159 1158 1158 1158 1157 1156 1156 1155 1155 1155 1155 1155 1152 1151 1155 1155 1158 1158 1157 1158 1158 1158 1156 1157 1156 1155 1155 1155 1157 1155 1155 1155 1155 1155 1154 1155 1154 1154 1152 1151 1151 1151 1150 1150 1149 1148 1149 1148 1148 1148 1148 1148 1147 1147 1145 1146 1146 1145 1144 1144 1144 1144 1144 1143 1143 1143 1143 1143 1141 1140 1142 1143 1140 1141 1140 1140 1139 1139 1139 1138 1142 1141 1140 1140 1138 1138 1136 1135 1138 1135 1135 1134 1136 1134 1133 1133 1132 1133 1133 1132 1132 1133 1133 1133 1133 1132 1129 1129 1129 1129 1129 1127 1127 1126 1124 1122 1121 1121 1125 1124 1125 1123 1124 1124 1124 1124 1121 1121 1118 1118 1118 1120 1118 1118 1119 1118 1118 1118 1116 1116 1117 1116 1114 1114 1114 1118 1118 1118 1117 1115 1115 1116 1115 1115 1114 1114 1114 1114 1111 1111 1110 1110 1110 1110 1110 1109 1111 1109 1107 1107 1107 1107 1107 1107 1107 1107 1107 1107 1107 1107 1106 1104 1104 1104 1104 1104 1102 1101 1100 1100 1100 1099 1099 1099 1099 1098 1098 1099 1099 1096 1096 1096 1096 1095 1096 1095 1096 1096 1097 1097 1097 1099 1098 1098 1097 1097 1096 1095 1095 1095 1095 1095 1096 1095 1095 1093 1093 1093 1093 1093 1092 1092 1091 1093 1093 1092 1091 1092 1092 1092 1092 1092 1088 1088 1089 1088 1087 1088 1088 1088 1089 1089 1089 1091 1090 1088 1081 1080 1078 1078 1078 1080 1082 1082 1082 1082 1082 1082 1082 1082 1079 1078 1078 1078 1078 1079 1081 1080 1080 1080 1080 1080 1079 1076 1079 1078 1077 1076 1077 1076 1076 1075 1075 1075 1075 1076 1075 1076 1075 1077 1076 1073 1073 1073 1073 1073 1071 1070 1073 1073 1071 1071 1070 1070 1072 1068 1067 1069 1071 1071 1070 1067 1067 1068 1069 1069 1069 1069 1069 1069 1069 1069 1069 1069 1069 1069 1066 1066 1064 1066 1063 1063 1065 1065 1066 1064 1064 1063 1064 1063 1063 1063 1063 1062 1062 1063 1063 1063 1063 1062 1062 1060 1060 1060 1060 1060 1058 1058 1056 1057 1059 1059 1059 1057 1059 1055 1059 1054 1053 1054 1052 1054 1054 1054 1053 1053 1053 1051 1050 1050 1048 1048 1048 1048 1048 1050 1050 1050 1050 1050 1047 1047 1047 1047 1046 1044 1046 1049 1049 1049 1049 1048 1048 1048 1047 1046 1045 1045 1043 1045 1044 1045 1045 1046 1046 1047 1044 1044 1042 1041 1041 1040 1040 1039 1040 1040 1039 1039 1039 1037 1038 1037 1037 1037 1037 1037 1037 1037 1037 1037 1034 1034 1032 1032 1033 1034 1033 1033 1033 1034 1035 1033 1033 1033 1034 1032 1032 1031 1029 1028 1028 1028 1025 1030 1028 1028 1028 1028 1028 1028 1027 1026 1026 1026 1026 1026 1026 1025 1024 1025 1025 1023 1022 1022 1021 1019 1020 1019 1021 1020 1019 1019 1019 1019 1019 1019 1016 1016 1017 1016 1016 1016 1016 1016 1016 1016 1016 1016 1016 1016 1016 1014 1015 1013 1013 1013 1013 1013 1013 1014 1013 1013 1012 1011 1012 1011 1009 1009 1007 1012 1012 1010 1010 1011 1010 1010 1010 1010 1010 1010 1010  757  758  759 1011 1010 1010 1010 1007 1009 1007 1007 1008 1008 1007 1009 1007 1007 1008 1007 1007
1167 1167 1167 1167 1166 1167 1167 1166 1167 1167 1166 1165 1165 1161 1161 1159 1158 1158 1158 1158 1158 1158 1160 1160 1161 1158 1158 1157 1157 1156 1156 1156 1156 1156 1155 1155 1155 1155 1155 1152 1157 1158 1158 1158 1158 1158 1158 1158 1158 1158 1157 1157 1157 1156 1158 1157 1158 1155 1155 1155 1155 1155 1155 1155 1151 1151 1151 1151 1151 1148 1148 1148 1148 1148 1148 1148 1147 1147 1147 1147 1145 1145 1145 1144 1144 1144 1144 1144 1144 1143 1143 1142 1143 1141 1139 1140 1140 1140 1140 1140 1140 1140 1139 1139 1138 1138 1141 1140 1140 1140 1138 1138 1137 1136 1139 1137 1137 1136 1137 1134 1133 1133 1132 1133 1132 1131 1132 1132 1131 1132 1132 1130 1129 1129 1129 1129 1129 1127 1127 1126 1126 1122 1122 1120 1124 1124 1124 1122 1124 1123 1122 1123 1121 1121 1119 1119 1117 1118 1118 1117 1118 1118 1117 1117 1115 1115 1115 1114 1114 1114 1114 1118 1118 1118 1117 1116 1116 1116 1116 1116 1116 1114 1115 1114 1112 1111 1111 1111 1110 1110 1110 1108 1110 1109 1107 1107 1107 1107 1107 1107 1107 1107 1107 1106 1106 1106 1106 1106 1104 1104 1104 1103 1102 1102 1100 1100 1101 1100 1099 1099 1098 1098 1097 1098 1098 1097 1097 1096 1095 1094 1094 1094 1096 1097 1097 1097 1095 1097 1097 1097 1097 1097 1095 1095 1095 1095 1095 1095 1096 1093 1095 1093 1093 1093 1093 1093 1092 1092 1092 1093 1092 1092 1090 1092 1092 1092 1093 1091 1089 1088 1089 1088 1085 1085 1085 1088 1088 1089 1089 1090 1090 1088 1080 1080 1080 1080 1082 1082 1082 1082 1082 1081 1081 1081 1079 1078 1078 1078 1077 1079 1079 1079 1081 1081 1081 1081 1081 1081 1081 1079 1079 1078 1077 1077 1077 1076 1076 1075 1075 1076 1075 1075 1075 1076 1075 1078 1076 1074 1074 1073 1073 1073 1072 1073 1073 1073 1070 1073 1072 1071 1072 1069 1067 1069 1069 1071 1070 1070 1069 1069 1069 1069 1069 1069 1069 1069 1069 1069 1069 1069 1069 1069 1067 1066 1066 1066 1063 1063 1066 1064 1065 1064 1064 1063 1063 1063 1063 1063 1062 1062 1062 1063 1063 1063 1063 1062 1062 1060 1060 1060 1060 1060 1058 1059 1056 1058 1059 1059 1059 1058 1059 1055 1059 1054 1053 1053 1052 1054 1054 1053 1053 1053 1053 1051 1050 1050 1048 1048 1048 1048 1048 1048 1048 1050 1049 1048 1047 1047 1047 1047 1047 1047 1046 1050 1049 1049 1049 1048 1048 1048 1047 1046 1046 1045 1043 1045 1043 1045 1044 1044 1044 1044 1044 1042 1041 1040 1040 1040 1040 1038 1039 1039 1039 1039 1039 1037 1038 1037 1037 1037 1037 1037 1037 1037 1036 1035 1034 1032 1032 1032 1033 1034 1033 1033 1033 1034 1035 1033 1033 1032 1033 1031 1029 1029 1029 1028 1027 1027 1025 1031 1028 1029 1029 1028 1029 1028 1028 1026 1026 1026 1026 1026 1026 1026 1025 1025 1025 1025 1022 1022 1022 1019 1019 1019 1019 1019 1019 1019 1019 1019 1019 1019 1018 1016 1018 1017 1016 1016 1016 1016 1016 1016 1016 1016 1016 1016 1016 1016 1016 1016 1015 1014 1013 1015 1013 1015 1013 1013 1011 1011 1011 1011 1009 1009 1007 1011 1011 1011 1011 1011 1012 1010 1010 1010 1011 1010 1010 1010 1010 1011 1011 1011 1010 1009 1007 1009 1007 1008 1008 1009 1007 1009 1007 1007 1008 1007 1006
1167 1167 1167 1167 1166 1166 1166 1166 1166 1166 1166 1163 1164 1162 1161 1161 1158 1158 1158 1158 1158 1158 1158 1158 1159 1157 1157 1157 1156 1156 1155 1155 1155 1155 1155 1155 1155 1155 1155 1153 1158 1158 1158 1158 1158 1158 1158 1158 1157 1158 1157 1157 1157 1156 1158 1158 1158 1156 1155 1155 1155 1155 1155 1155 1151 1151 1151 1151 1151 1148 1148 1148 1148 1148 1148 1148 1147 1147 1147 1147 1146 1146 1146 1146 1144 1144 1144 1144 1144 1143 1143 1143 1142 1141 1139 1140 1140 1140 1140 1140 1140 1140 1140 1139 1138 1136 1140 1139 1139 1138 1136 1138 1137 1136 1139 1136 1136 1137 1138 1135 1134 1133 1132 1132 1132 1131 1131 1131 1130 1131 1131 1131 1129 1130 1129 1129 1129 1127 1127 1125 1124 1122 1122 1120 1122 1123 1126 1123 1123 1123 1123 1122 1121 1120 1117 1118 1119 1118 1118 1117 1118 1118 1117 1116 1114 1115 1114 1114 1114 1113 1114 1118 1118 1118 1117 1116 1116 1116 1114 1115 1115 1115 1114 1112 1111 1111 1110 1110 1109 1108 1110 1108 1110 1109 1108 1107 1108 1107 1108 1107 1107 1107 1107 1106 1107 1106 1105 1104 1104 1104 1104 1103 1103 1102 1102 1102 1102 1099 1099 1099 1099 1099 1098 1097 1097 1097 1097 1095 1095 1096 1096 1095 1095 1097 1096 1097 1094 1097 1097 1097 1097 1097 1095 1095 1095 1095 1095 1096 1096 1094 1094 1093 1093 1093 1093 1093 1092 1092 1092 1092 1092 1092 1091 1091 1092 1093 1093 1092 1089 1088 1089 1089 1085 1085 1085 1088 1089 1089 1089 1091 1089 1088 1084 1082 1080 1079 1081 1080 1079 1082 1082 1082 1080 1080 1080 1080 1079 1080 1077 1077 1077 1079 1081 1081 1081 1080 1080 1080 1081 1079 1079 1079 1077 1077 1076 1075 1075 1075 1075 1076 1075 1076 1074 1075 1075 1078 1075 1074 1075 1073 1073 1073 1072 1071 1073 1073 1068 1071 1072 1071 1071 1068 1068 1069 1069 1070 1070 1070 1070 1070 1069 1069 1069 1069 1069 1069 1069 1069 1069 1069 1069 1069 1069 1066 1064 1066 1063 1062 1064 1064 1064 1064 1064 1063 1063 1063 1063 1063 1063 1063 1062 1063 1063 1063 1062 1062 1062 1060 1059 1060 1060 1059 1059 1059 1056 1057 1059 1059 1060 1058 1058 1057 1057 1054 1053 1052 1052 1052 1052 1052 1052 1051 1051 1051 1050 1050 1048 1048 1048 1048 1050 1050 1049 1050 1050 1049 1048 1047 1047 1047 1047 1047 1047 1050 1050 1049 1049 1048 1048 1048 1047 1045 1045 1045 1043 1044 1043 1044 1044 1044 1044 1044 1043 1043 1041 1041 1041 1040 1040 1038 1039 1039 1039 1039 1039 1037 1038 1037 1037 1037 1037 1037 1037 1037 1036 1034 1034 1032 1032 1032 1033 1034 1033 1034 1034 1034 1034 1033 1033 1032 1032 1031 1029 1029 1029 1028 1027 1028 1027 1031 1031 1031 1031 1029 1030 1028 1028 1026 1027 1026 1026 1026 1026 1026 1026 1026 1025 1024 1022 1022 1020 1019 1019 1019 1019 1019 1019 1019 1019 1019 1019 1019 1017 1016 1016 1017 1016 1016 1015 1016 1016 1016 1015 1016 1016 1015 1016 1015 1016 1016 1015 1015 1014 1016 1014 1015 1013 1013 1012 1011 1011 1011 1008 1008 1007 1010 1011 1011 1011 1011 1011 1010 1010 1010 1010 1009 1010 1008 1009 1010 1010 1010 1010 1008 1007 1007 1007 1006 1007 1007 1007 1007 1007 1007 1007 1006 1006
1167 1166 1166 1166 1165 1166 1165 1166 1166 1167 1166 1163 1164 1163 1162 1162 1158 1158 1159 1160 1158 1159 1159 1158 1158 1157 1157 1155 1157 1157 1156 1155 1155 1155 1155 1155 1155 1155 1155 1154 1158 1158 1158 1158 1158 1158 1158 1159 1158 1158 1157 1157 1158 1157 1158 1158 1158 1156 1155 1155 1155 1155 1154 1154 1152 1151 1151 1149 1149 1148 1148 1148 1148 1148 1148 1148 1148 1147 1147 1147 1147 1147 1146 1146 1144 1144 1145 1144 1144 1143 1143 1143 1142 1141 1139 1140 1140 1140 1140 1139 1140 1140 1140 1139 1138 1137 1141 1140 1140 1140 1139 1139 1139 1138 1139 1138 1136 1136 1137 1135 1134 1133 1132 1132 1132 1131 1131 1131 1129 1131 1130 1131 1129 1130 1129 1129 1129 1127 1128 1125 1123 1122 1122 1120 1121 1122 1122 1122 1123 1122 1122 1121 1121 1120 1119 1120 1119 1117 1117 1117 1117 1118 1116 1116 1114 1114 1114 1116 1114 1113 1114 1118 1117 1118 1117 1117 1116 1116 1114 1115 1115 1115 1113 1113 1111 1110 1109 1109 1108 1108 1108 1108 1108 1108 1108 1107 1107 1107 1107 1107 1107 1107 1107 1107 1107 1107 1104 1104 1104 1105 1104 1104 1104 1104 1104 1103 1103 1102 1100 1101 1100 1100 1100 1098 1100 1097 1097 1097 1095 1096 1096 1094 1094 1096 1095 1096 1095 1097 1097 1097 1097 1097 1097 1095 1096 1097 1095 1095 1095 1094 1094 1093 1093 1092 1093 1093 1092 1092 1091 1092 1092 1093 1091 1092 1092 1093 1093 1091 1089 1089 1089 1089 1088 1086 1085 1089 1088 1089 1089 1089 1089 1088 1082 1081 1081 1081 1082 1082 1081 1082 1082 1082 1080 1080 1078 1079 1078 1077 1077 1077 1077 1079 1083 1082 1080 1080 1081 1081 1083 1080 1081 1079 1079 1076 1077 1076 1076 1075 1075 1076 1075 1075 1074 1075 1075 1076 1075 1074 1075 1073 1073 1073 1073 1072 1073 1073 1070 1071 1072 1071 1070 1068 1068 1069 1069 1070 1070 1069 1069 1069 1069 1069 1069 1068 1067 1068 1069 1068 1068 1069 1069 1069 1068 1066 1065 1065 1063 1062 1064 1064 1064 1064 1064 1063 1063 1063 1063 1063 1063 1063 1063 1063 1062 1062 1062 1060 1061 1060 1060 1060 1060 1060 1059 1059 1057 1058 1059 1058 1060 1059 1057 1057 1056 1053 1052 1052 1051 1052 1052 1051 1053 1052 1051 1051 1050 1050 1049 1049 1048 1049 1049 1049 1049 1050 1050 1048 1048 1047 1047 1047 1047 1047 1046 1050 1050 1050 1049 1049 1049 1048 1048 1046 1045 1045 1043 1043 1043 1043 1043 1044 1042 1043 1043 1043 1041 1040 1041 1040 1040 1040 1040 1040 1040 1039 1039 1037 1038 1037 1037 1037 1037 1037 1037 1037 1036 1034 1034 1031 1031 1031 1031 1031 1032 1033 1033 1033 1033 1032 1032 1032 1031 1029 1029 1029 1028 1028 1027 1028 1028 1031 1030 1030 1030 1029 1030 1028 1028 1028 1028 1027 1026 1026 1026 1026 1026 1026 1025 1025 1022 1022 1020 1020 1020 1019 1019 1019 1019 1019 1019 1019 1019 1019 1017 1017 1017 1017 1016 1016 1016 1016 1016 1016 1015 1015 1015 1013 1016 1013 1016 1015 1015 1015 1015 1016 1015 1015 1015 1015 1012 1012 1011 1010 1008 1007 1007 1010 1010 1010 1010 1011 1010 1010 1010 1010 1010 1010 1010 1008 1009 1010 1010 1010 1010 1007 1008 1009 1007 1007 1007 1007 1007 1007 1007 1007 1007 1007 1006
1166 1164 1165 1166 1165 1166 1165 1166 1166 1166 1164 1163 1163 1160 1161 1161 1159 1159 1160 1161 1160 1159 1159 1159 1158 1158 1158 1157 1157 1156 1156 1156 1156 1157 1155 1156 1155 1155 1155 1155 1159 1159 1159 1158 1158 1158 1158 1158 1158 1158 1157 1157 1158 1158 1158 1158 1157 1156 1155 1155 1154 1154 1152 1152 1152 1152 1151 1149 1150 1148 1148 1148 1148 1148 1148 1148 1148 1147 1147 1147 1146 1146 1146 1146 1144 1144 1145 1145 1144 1143 1143 1143 1142 1141 1139 1139 1140 1140 1140 1140 1140 1140 1140 1139 1139 1137 1142 1141 1139 1140 1139 1139 1138 1136 1136 1136 1136 1137 1136 1134 1133 1133 1132 1132 1132 1130 1130 1130 1129 1131 1129 1132 1129 1129 1129 1129 1128 1128 1125 1124 1122 1121 1121 1121 1121 1121 1122 1121 1122 1122 1122 1120 1120 1119 1119 1118 1118 1118 1117 1116 1117 1118 1116 1116 1114 1116 1114 1116 1115 1114 1116 1118 1118 1117 1117 1117 1117 1116 1113 1113 1114 1114 1113 1110 1111 1110 1109 1109 1108 1108 1109 1108 1111 1108 1108 1108 1108 1107 1107 1107 1107 1107 1107 1107 1107 1107 1104 1104 1104 1104 1105 1103 1104 1103 1104 1104 1103 1102 1101 1102 1101 1100 1100 1097 1097 1097 1097 1095 1095 1096 1096 1095 1094 1097 1095 1095 1095 1097 1097 1097 1097 1096 1097 1094 1095 1096 1096 1093 1093 1093 1093 1093 1093 1093 1093 1093 1092 1092 1091 1092 1091 1092 1091 1092 1092 1092 1092 1089 1089 1087 1088 1087 1085 1085 1085 1087 1088 1088 1089 1088  543  811 1081 1082 1081 1080 1081 1081 1081 1082 1082 1082 1081 1081 1080 1079 1079 1079 1078 1077 1076 1079 1083 1082 1082 1081 1081 1081 1082 1080 1081 1081 1080 1079 1078 1077 1077 1076 1076 1076 1075 1075 1074 1075 1074 1075 1075 1073 1074 1073 1073 1073 1073 1073 1073 1073 1073 1073 1073 1073 1072 1069 1067 1069 1069 1069 1069 1069 1069 1069 1069 1069 1068 1067 1066 1066 1066 1066 1066 1066 1066 1067 1066 1066 1064 1066 1063 1063 1065 1064 1064 1063 1063 1063 1063 1063 1063 1063 1063 1063 1063 1063 1062 1062 1062 1060 1061 1060 1060 1060 1060 1060 1060 1060 1058 1058 1059 1057 1059 1059 1056 1056 1054 1054 1053 1052 1050 1050 1052 1050 1051 1050 1050 1050 1050 1050 1049 1049 1048 1047 1047 1047 1047 1050 1050 1047 1047 1047 1047 1047 1047 1047 1047 1050 1050 1050 1049 1049 1050 1048 1048 1046 1045 1045 1043 1042 1042 1042 1042 1042 1042 1043 1043 1042 1041 1040 1041 1040 1040 1040 1040 1040 1040 1039 1039 1039 1039 1037 1037 1037 1037 1037 1037 1037 1037 1034 1034 1032 1031 1031 1031 1033 1031 1033 1033 1033 1033 1033 1031 1031 1029 1029 1029 1028 1028 1028 1026 1028 1027 1030 1030 1030 1030 1028 1030 1028 1028 1028 1027 1026 1026 1026 1025 1026 1026 1026 1025 1023 1022 1022 1020 1019 1019 1019 1019 1019 1019 1019 1019 1019 1019 1018 1017 1017 1017 1017 1016 1016 1016 1016 1016 1016 1015 1015 1015 1013 1014 1012 1014 1013 1014 1014 1014 1015 1015 1015 1014 1014 1012 1011 1011 1009 1008 1007 1007 1010 1010 1010 1010 1010 1010 1010 1010 1010 1008 1008 1008 1007 1007 1007 1006 1007 1007 1006 1005 1007 1006 1006 1007 1007 1007 1009 1008 1007 1007 1007 1007
1166 1165 1165 1166 1165 1166 1165 1165 1165 1164 1162 1159 1160 1159 1159 1159 1158 1158 1160 1161 1158 1159 1158 1159 1158 1158 1159 1157 1157 1157 1156 1156 1156 1158 1156 1157 1156 1155 1155 1155 1159 1159 1159 1157 1157 1157 1157 1157 1157 1157 1157 1157 1157 1157 1159 1158 1157 1157 1155 1155 1155 1155 1152 1153 1152 1153 1151 1151 1151 1148 1148 1148 1148 1148 1147 1146 1147 1146 1146 1146 1146 1146 1145 1146 1143 1144 1146 1146 1144 1144 1144 1143 1142 1141 1139 1139 1140 1139 1139 1139 1140 1139 1139 1139 1138 1139 1142 1140 1140 1140 1139 1139 1138 1136 1136 1136 1137 1137 1137 1135 1134 1133 1132 1132 1132 1130 1129 1130 1129 1131 1129 1132 1128 1129 1129 1129 1127 1128 1124 1123 1122 1121 1120 1120 1120 1120 1121 1121 1121 1121 1122 1120 1120 1119 1119 1120 1119 1118 1117 1117 1117 1118 1116 1116 1114 1116 1114 1116 1114 1114 1116 1119 1119 1117 1117 1117 1117 1115 1113 1113 1113 1113 1112 1110 1110 1109 1109 1109 1108 1108 1108 1108 1109 1108 1108 1107 1107 1107 1107 1107 1107 1107 1107 1107 1105 1106 1104 1104 1104 1104 1104 1103 1104 1104 1103 1103 1103 1102 1102 1101 1101 1100 1100 1097 1098 1097 1097 1094 1095 1094 1095 1094 1094 1095 1095 1095 1094 1097 1097 1097 1097 1097 1097 1096 1096 1096 1095 1095 1093 1093 1093 1093 1093 1093 1093 1092 1093 1091 1090 1091 1091 1092 1091 1091 1091 1092 1092 1089 1087 1085 1088 1085 1084 1084 1084 1086 1086 1087 1087  269  269  811 1081 1080 1080 1080 1080 1080 1080 1081 1081 1082 1080 1080 1079 1079 1079 1079 1078 1078 1078 1079 1083 1083 1083 1081 1081 1081 1083 1079 1079 1077 1079 1077 1078 1077 1076 1076 1076 1077 1074 1075 1073 1074 1072 1072 1072 1072 1073 1073 1073 1073 1073 1073 1073 1073 1072 1073 1071 1073 1072 1070 1069 1069 1069 1070 1070 1069 1068 1069 1069 1069 1066 1066 1066 1066 1066 1066 1066 1066 1066 1066 1066 1066 1064 1063 1063 1062 1065 1064 1064 1063 1063 1063 1063 1063 1063 1063 1062 1063 1063 1062 1061 1062 1060 1060 1061 1060 1060 1060 1060 1060 1060 1058 1057 1058 1057 1057 1059 1058 1056 1056 1053 1053 1053 1050 1050 1050 1050 1050 1050 1050 1050 1050 1050 1050 1049 1050 1048 1048 1047 1047 1047 1049 1049 1047 1047 1047 1047 1047 1047 1047 1047 1050 1050 1050 1050 1050 1050 1048 1048 1047 1045 1045 1045 1042 1042 1042 1041 1042 1041 1041 1040 1040 1040 1040 1040 1040 1040 1040 1040 1040 1040 1039 1039 1038 1037 1037 1037 1037 1037 1037 1037 1036 1035 1032 1031 1031 1031 1031 1031 1031 1030 1031 1032 1031 1031 1030 1030 1029 1029 1028 1028 1028 1028 1028 1026 1028 1027 1030 1030 1028 1030 1029 1028 1028 1028 1028 1028 1025 1026 1025 1025 1026 1027 1025 1024 1022 1022 1022 1019 1019 1019 1019 1019 1019 1019 1019 1019 1019 1018 1018 1017 1016 1017 1017 1017 1017 1017 1016 1016 1016 1015 1015 1015 1013 1014 1012 1013 1012 1014 1014 1013 1014 1013 1014 1014 1013 1012 1010 1010 1009 1008 1007 1007 1010 1010 1010 1010 1010 1010 1010 1010 1010 1009 1008 1008 1007 1007 1008 1007 1007 1007 1007 1007 1007 1007 1008 1008 1009 1010 1010 1010 1007 1007 1007 1006
1167 1166 1166 1166 1164 1164 1165 1165 1165 1165 1163 1161 1163 1163 1162 1161 1161 1161 1161 1161 1159 1159 1158 1158 1158 1156 1158 1156 1157 1157 1157 1156 1156 1158 1156 1156 1156 1155 1155 1155 1159 1159 1159 1158 1156 1157 1157 1157 1157 1155 1157 1157 1157 1157 1157 1157 1157 1157 1156 1155 1155 1153 1152 1151 1151 1151 1151 1148 1149 1148 1148 1148 1148 1145 1145 1145 1146 1145 1144 1144 1144 1144 1144 1144 1143 1144 1145 1146 1144 1144 1144 1143 1143 1141 1140 1139 1139 1139 1139 1138 1139 1139 1139 1138 1138 1136 1140 1140 1139 1139 1137 1139 1137 1136 1136 1136 1136 1135 1135 1134 1133 1132 1131 1130 1132 1129 1129 1130 1128 1131 1129 1132 1128 1129 1129 1129 1127 1126 1126 1123 1123 1120 1121 1121 1121 1121 1121 1120 1121 1121 1121 1120 1121 1120 1119 1119 1119 1118 1117 1117 1118 1118 1116 1116 1114 1116 1114 1115 1114 1114 1114 1118 1117 1117 1117 1117 1117 1113 1113 1113 1113 1110 1111 1110 1111 1111 1110 1109 1107 1108 1109 1110 1110 1109 1108 1108 1108 1107 1107 1107 1107 1107 1107 1107 1107 1106 1104 1104 1104 1103 1104 1104 1104 1104 1104 1104 1102 1101 1100 1100 1100 1100 1099 1097 1097 1097 1097 1095 1095 1095 1095 1093 1093 1095 1095 1095 1095 1097 1097 1097 1096 1096 1097 1095 1096 1096 1096 1096 1093 1093 1092 1092 1092 1093 1093 1091 1093 1091 1091 1092 1093 1091 1090 1090 1090 1090 1089 1088 1087 1086 1085 1085 1084 1085 1083 1086 1087 1087  542  269  269 1083 1082 1082 1080 1080 1081 1080 1080 1081 1081 1082 1081 1081 1079 1079 1079 1079 1079 1079 1079 1077 1083 1083 1083 1082 1083 1082 1082 1081 1080 1078 1080 1077 1078 1077 1076 1076 1076 1076 1075 1074 1074 1075 1073 1073 1073 1072 1073 1073 1073 1073 1073 1071 1073 1073 1071 1072 1070 1071 1071 1071 1069 1070 1070 1072 1070 1070 1068 1068 1068 1067 1066 1065 1065 1065 1065 1066 1065 1065 1066 1066 1066 1065 1063 1063 1062 1062 1065 1064 1063 1063 1063 1063 1063 1063 1063 1063 1063 1063 1062 1063 1061 1061 1060 1060 1060 1060 1060 1060 1060 1060 1060 1057 1056 1058 1056 1057 1058 1057 1054 1055 1053 1053 1053 1050 1050 1050 1050 1050 1050 1050 1050 1050 1050 1050 1049 1050 1049 1048 1047 1047 1047 1048 1049 1047 1047 1047 1047 1047 1047 1047 1047 1050 1050 1050 1050 1050 1050 1048 1048 1048 1045 1045 1045 1045 1042 1043 1042 1041 1041 1040 1040 1040 1040 1040 1040 1040 1040 1040 1040 1040 1040 1039 1039 1037 1037 1037 1037 1037 1037 1036 1034 1034 1034 1031 1031 1031 1031 1031 1031 1031 1030 1031 1032 1031 1030 1030 1030 1028 1028 1028 1028 1028 1025 1025 1025 1026 1026 1029 1028 1028 1029 1029 1029 1028 1028 1028 1028 1025 1025 1025 1025 1025 1025 1024 1024 1022 1022 1020 1019 1019 1019 1019 1019 1019 1019 1019 1019 1019 1019 1018 1016 1016 1017 1017 1017 1017 1016 1016 1016 1016 1015 1014 1013 1013 1014 1012 1013 1014 1014 1014 1013 1014 1013 1014 1013 1012 1010 1010 1010 1010 1008 1007 1007 1010 1010 1010 1010 1010 1010 1010 1010 1010 1009 1010 1010 1008 1008 1008 1007 1007 1007 1007 1007 1008 1006 1008 1008 1009 1010 1009 1010 1009 1010 1007 1007
1167 1165 1164 1165 1163 1164 1164 1164 1164 1164 1163 1162 1162 1163 1161 1161 1161 1161 1160 1161 1159 1158 1157 1157 1156 1155 1155 1154 1155 1155 1156 1155 1155 1157 1156 1156 1156 1155 1155 1155 1159 1158 1158 1158 1156 1158 1157 1157 1155 1155 1157 1155 1156 1155 1157 1157 1157 1157 1153 1154 1153 1153 1152 1151 1150 1151 1151 1148 1148 1148 1148 1147 1148 1145 1145 1145 1146 1144 1144 1144 1143 1143 1142 1143 1142 1143 1143 1143 1143 1143 1144 1143 1143 1141 1140 1139 1139 1139 1139 1139 1139 1139 1139 1138 1138 1137 1139 1139 1139 1138 1137 1138 1136 1135 1135 1135 1134 1134 1135 1134 1133 1133 1133 1132 1132 1129 1129 1129 1128 1129 1129 1132 1129 1129 1129 1129 1127 1126 1124 1122 1122 1119 1120 1121 1121 1121 1121 1120 1119 1120 1120 1120 1119 1118 1119 1119 1119 1118 1117 1117 1117 1118 1117 1116 1116 1117 1116 1116 1114 1113 1114 1117 1117 1117 1116 1116 1117 1113 1113 1111 1111 1110 1110 1110 1109 1111 1110 1109 1108 1108 1108 1109 1109 1109 1109 1109 1109 1109 1109 1107 1107 1107 1107 1107 1107 1106 1104 1104 1104 1103 1104 1103 1104 1104 1104 1104 1104 1103 1101 1101 1101 1100 1099 1097 1097 1097 1097 1094 1093 1093 1093 1094 1093 1094 1094 1095 1094 1097 1097 1097 1096 1096 1097 1094 1095 1096 1096 1095 1093 1093 1093 1092 1092 1092 1092 1091 1092 1090 1090 1092 1091 1091 1090 1089 1090 1090 1089 1088 1087 1085 1086 1086 1084 1084 1083 1085 1084  813  270  269  810 1080 1083 1081 1081 1081 1082 1082 1082 1082 1081 1082 1082 1081 1078 1079 1079 1079 1079 1079 1079 1079 1083 1083 1083 1081 1082 1081 1083 1081 1080 1077 1077 1076 1076 1075 1076 1076 1075 1076 1074 1075 1075 1075 1073 1073 1073 1072 1073 1072 1073 1072 1072 1070 1073 1069 1069 1070 1069 1071 1071 1071 1069 1071 1072 1072 1070 1070 1068 1068 1067 1066 1066 1065 1063 1064 1064 1066 1065 1065 1066 1066 1066 1065 1065 1063 1062 1062 1066 1065 1064 1064 1063 1063 1063 1063 1063 1063 1063 1063 1062 1062 1060 1060 1060 1060 1060 1059 1060 1060 1059 1058 1060 1056 1056 1056 1055 1055 1058 1057 1054 1054 1053 1053 1053 1052 1050 1052 1051 1050 1050 1050 1050 1050 1050 1050 1050 1050 1050 1049 1047 1047 1047 1047 1047 1047 1047 1048 1047 1047 1047 1047 1047 1050 1050 1050 1050 1050 1050 1049 1049 1048 1046 1045 1044 1042 1042 1042 1041 1041 1040 1040 1040 1040 1039 1039 1040 1040 1040 1039 1040 1038 1039 1039 1037 1037 1036 1037 1036 1037 1036 1034 1034 1034 1034 1032 1031 1031 1032 1031 1031 1031 1031 1033 1033 1033 1031 1030 1031 1030 1028 1028 1028 1028 1027 1027 1025 1027 1027 1028 1028 1028 1029 1029 1029 1028 1028 1028 1028 1026 1026 1025 1025 1026 1026 1025 1024 1023 1022 1022 1020 1019 1019 1019 1019 1019 1019 1019 1018 1019 1019 1019 1018 1017 1017 1017 1017 1017 1016 1016 1015 1013 1013 1013 1013 1013 1013 1011 1012 1013 1013 1013 1011 1011 1011 1014 1013 1011 1010 1010 1010 1008 1008 1007 1007 1010 1010 1010 1010 1010 1010 1010 1010 1010 1010 1010 1010 1007 1007 1007 1007 1007 1007 1007 1008 1009 1008 1009 1009 1009 1008 1008 1010 1010 1010 1007 1007
1164 1164 1162 1165 1163 1163 1164 1164 1164 1163 1161 1160 1160 1160 1160 1160 1160 1161 1161 1161 1160 1160 1158 1158 1155 1154 1155 1154 1155 1155 1156 1155 1156 1157 1157 1156 1157 1155 1155 1155 1159 1158 1155 1156 1155 1157 1157 1156 1155 1155 1156 1156 1157 1155 1155 1157 1157 1156 1153 1154 1153 1153 1152 1151 1150 1151 1150 1148 1148 1148 1147 1147 1148 1145 1145 1145 1146 1144 1144 1144 1143 1142 1142 1142 1142 1143 1143 1143 1143 1144 1144 1143 1143 1140 1140 1139 1139 1139 1138 1138 1138 1137 1138 1136 1137 1136 1139 1139 1139 1139 1136 1137 1136 1135 1134 1134 1134 1134 1134 1134 1133 1133 1133 1131 1132 1129 1129 1129 1129 1129 1129 1132 1129 1129 1129 1127 1126 1125 1124 1123 1122 1120 1121 1121 1121 1120 1120 1119 1118 1119 1120 1119 1120 1119 1119 1119 1119 1118 1118 1117 1117 1118 1116 1116 1115 1117 1116 1116 1114 1113 1114 1117 1117 1117 1115 1115 1116 1114 1113 1113 1114 1111 1113 1110 1110 1110 1111 1110 1110 1110 1109 1109 1109 1109 1109 1109 1109 1109 1109 1107 1106 1107 1107 1107 1105 1106 1104 1104 1104 1104 1104 1104 1104 1104 1103 1104 1104 1104 1101 1101 1101 1100 1099 1097 1097 1097 1097 1093 1094 1093 1094 1093 1093 1094 1094 1093 1093 1096 1096 1096 1096 1095 1097 1093 1095 1096 1093 1093 1093 1093 1093 1093 1093 1093 1092 1091 1093 1090 1091 1092 1092 1092 1090 1090 1090 1090 1089 1088 1087 1085 1085 1087 1086 1087 1085 1086 1085  540  539  540 1080 1081 1079 1081 1079 1081 1082 1082 1082 1082 1082 1082 1082 1082 1080 1079 1079 1079 1079 1079 1079 1079 1083 1083 1083 1081 1082 1082 1082 1081 1080 1077 1077 1076 1076 1076 1075 1076 1075 1074 1074 1074 1074 1073 1073 1072 1072 1072 1073 1072 1073 1072 1072 1072 1071 1070 1069 1069 1069 1069 1069 1071 1071 1072 1072 1070 1070 1069 1068 1068 1067 1066 1066 1064 1063 1063 1063 1064 1064 1065 1065 1066 1064 1063 1063 1063 1062 1061 1065 1064 1064 1063 1063 1063 1062 1062 1061 1061 1061 1061 1060 1060 1060 1060 1060 1060 1060 1059 1060 1060 1060 1059 1060 1056 1055 1056 1055 1055 1058 1057 1054 1055 1054 1054 1053 1052 1050 1050 1050 1050 1050 1050 1050 1050 1050 1050 1050 1050 1050 1050 1048 1048 1047 1047 1048 1047 1047 1049 1049 1048 1048 1047 1047 1050 1050 1050 1050 1050 1050 1049 1049 1048 1046 1046 1045 1043 1042 1043 1041 1041 1041 1040 1040 1040 1040 1040 1040 1040 1040 1040 1040 1039 1038 1038 1037 1037 1036 1036 1035 1036 1036 1035 1034 1035 1034 1032 1032 1031 1031 1031 1031 1031 1031 1031 1032 1031 1030 1030 1031 1029 1028 1028 1028 1028 1025 1025 1025 1027 1027 1028 1028 1028 1029 1029 1028 1028 1028 1028 1027 1026 1026 1025 1025 1024 1025 1024 1023 1022 1022 1019 1019 1019 1019 1019 1019 1019 1019 1019 1018 1019 1019 1019 1018 1017 1017 1017 1017 1017 1016 1016 1016 1013 1013 1015 1016 1013 1013 1011 1011 1011 1011 1011 1011 1011 1011 1011 1011 1010 1010 1008 1010 1008 1008 1007 1007 1010 1009 1010 1009 1010 1010 1010 1010 1010 1010 1010 1008 1007 1007 1007 1007 1007 1007 1007 1009 1009 1009 1010 1010 1009 1010 1009 1008 1009 1009 1007 1006
1164 1164 1163 1165 1159 1163 1162 1163 1164 1164 1162 1160 1161 1160 1160 1160 1159 1159 1159 1161 1159 1159 1158 1158 1158 1157 1157 1155 1155 1155 1156 1155 1156 1156 1156 1156 1156 1155 1154 1154 1160 1157 1156 1157 1155 1156 1156 1156 1155 1155 1155 1155 1155 1155 1155 1155 1153 1153 1153 1153 1153 1152 1151 1151 1149 1151 1150 1148 1148 1148 1147 1147 1147 1147 1147 1146 1146 1144 1144 1144 1143 1142 1142 1142 1142 1143 1143 1143 1143 1143 1144 1143 1143 1140 1140 1139 1139 1139 1139 1139 1138 1137 1138 1137 1136 1137 1140 1140 1139 1139 1137 1137 1135 1135 1134 1134 1133 1133 1133 1133 1133 1133 1132 1131 1132 1131 1130 1131 1132 1132 1132 1132 1130 1129 1129 1128 1126 1126 1124 1122 1122 1121 1120 1121 1120 1119 1119 1118 1118 1119 1121 1120 1120 1118 1119 1119 1119 1118 1118 1117 1118 1118 1116 1115 1116 1116 1116 1115 1115 1113 1114 1117 1117 1116 1114 1114 1116 1115 1111 1111 1111 1111 1111 1110 1110 1110 1110 1110 1109 1110 1109 1109 1109 1109 1109 1109 1109 1109 1109 1108 1106 1107 1106 1105 1105 1105 1104 1104 1104 1104 1104 1104 1104 1104 1103 1103 1103 1102 1102 1102 1102 1100 1099 1097 1097 1097 1097 1093 1095 1094 1094 1094 1093 1094 1094 1094 1094 1097 1097 1096 1096 1094 1096 1094 1095 1095 1094 1095 1093 1093 1093 1093 1092 1093 1092 1091 1092 1091 1091 1092 1093 1090 1090 1090 1090 1090 1089 1087 1087 1085 1085 1086 1084 1085 1085 1083 1081 1080 1080 1081 1080 1080 1079 1081 1080 1080 1082 1082 1082 1082 1082 1082 1082 1082 1080 1079 1079 1079 1079 1078 1079 1079 1083 1083 1083 1081 1082 1081 1081 1080 1079 1077 1077 1076 1076 1076 1075 1076 1074 1074 1074 1074 1073 1072 1072 1073 1073 1072 1073 1072 1072 1072 1070 1069 1069 1069 1069 1070 1070 1070 1071 1072 1072 1072 1072 1072 1070 1069 1068 1068 1066 1066 1065 1063 1063 1063 1063 1064 1063 1063 1064 1065 1063 1063 1063 1061 1061 1060 1063 1063 1063 1063 1062 1062 1062 1061 1061 1061 1060 1060 1060 1060 1060 1060 1060 1060 1060 1060 1060 1060 1060 1058 1060 1056 1055 1055 1055 1056 1058 1056 1054 1055 1054 1054 1052 1050 1050 1050 1050 1050 1050 1050 1050 1050 1050 1050 1050 1050 1050 1050 1048 1048 1047 1048 1048 1047 1048 1048 1047 1047 1047 1047 1047 1050 1050 1050 1050 1049 1049 1047 1047 1047 1045 1045 1045 1043 1042 1043 1042 1041 1041 1040 1040 1040 1040 1039 1040 1040 1040 1039 1040 1039 1039 1038 1037 1037 1036 1036 1034 1036 1035 1035 1034 1034 1034 1032 1031 1031 1031 1031 1031 1031 1031 1031 1031 1031 1031 1029 1031 1028 1028 1028 1028 1027 1025 1025 1025 1026 1025 1028 1028 1028 1028 1028 1028 1028 1026 1028 1026 1026 1025 1025 1024 1023 1024 1023 1022 1022 1019 1019 1019 1019 1019 1018 1019 1019 1019 1019 1018 1018 1019 1019 1018 1018 1018 1017 1017 1018 1016 1016 1016 1014 1013 1015 1014 1013 1013 1011 1011 1011 1011 1011 1010 1011 1010 1011 1011 1010 1010 1010 1010 1009 1008 1007 1007 1010 1009 1010 1009 1010 1010 1010 1010 1010 1010 1010 1009 1007 1007 1007 1007 1007 1007 1009 1009 1009 1010 1010 1010 1010 1010 1009 1007 1008 1006 1006 1005
1163 1163 1163 1163 1159 1162 1162 1163 1164 1163 1162 1159 1162 1160 1160 1161 1159 1160 1161 1161 1161 1161 1159 1158 1158 1158 1158 1157 1157 1157 1157 1157 1157 1157 1157 1155 1156 1156 1154 1154 1159 1157 1156 1158 1155 1157 1157 1156 1155 1155 1155 1155 1155 1155 1155 1155 1153 1153 1153 1153 1152 1152 1152 1151 1150 1151 1149 1148 1147 1147 1147 1147 1147 1146 1146 1145 1144 1144 1142 1144 1142 1142 1142 1142 1142 1143 1143 1143 1143 1144 1144 1142 1142 1141 1139 1139 1139 1138 1137 1139 1137 1138 1138 1137 1136 1138 1140 1140 1140 1139 1138 1135 1134 1134 1134 1134 1133 1133 1133 1133 1133 1133 1130 1131 1132 1130 1130 1131 1132 1131 1132 1132 1129 1129 1129 1128 1127 1128 1124 1123 1121 1121 1119 1120 1119 1119 1118 1118 1118 1120 1121 1120 1119 1118 1119 1119 1119 1118 1118 1116 1115 1115 1115 1115 1116 1115 1114 1115 1113 1113 1113 1117 1116 1114 1114 1113 1114 1113 1112 1112 1113 1111 1111 1111 1109 1110 1110 1110 1110 1109 1109 1109 1110 1109 1109 1109 1109 1109 1109 1107 1105 1107 1105 1106 1104 1104 1104 1104 1104 1103 1104 1104 1103 1103 1102 1103 1103 1101 1101 1101 1100 1098 1097 1097 1097 1096 1095 1094 1094 1093 1093 1093 1093 1094 1094 1093 1093 1097 1095 1096 1096 1095 1096 1096 1094 1095 1095 1095 1094 1095 1093 1093 1092 1093 1092 1091 1092 1091 1092 1090 1092 1090 1090 1090 1089 1089 1087 1087 1086 1084 1085 1084 1082 1082 1081 1081 1081 1081 1081 1079 1080 1080 1079 1079 1080 1080 1081 1081 1081 1081 1082 1082 1082 1081 1078 1079 1079 1079 1079 1079 1079 1079 1083 1083 1083 1082 1082 1081 1080 1080 1078 1077 1076 1075 1075 1075 1075 1076 1074 1074 1074 1073 1073 1072 1072 1071 1071 1071 1072 1072 1071 1071 1069 1069 1070 1070 1070 1070 1070 1072 1072 1072 1072 1072 1072 1072 1071 1069 1069 1068 1066 1066 1065 1063 1063 1063 1063 1064 1063 1062 1064 1063 1063 1063 1063 1061 1061 1060 1063 1063 1064 1063 1063 1063 1062 1061 1061 1060 1060 1060 1060 1060 1060 1060 1060 1060 1060 1058 1060 1060 1060 1058 1060 1055 1055 1055 1055 1055 1055 1055 1053 1054 1053 1053 1052 1050 1050 1050 1050 1050 1050 1050 1050 1050 1050 1050 1050 1050 1050 1050 1048 1048 1048 1047 1047 1047 1047 1047 1047 1047 1047 1047 1047 1050 1050 1048 1049 1049 1048 1047 1047 1047 1045 1045 1045 1042 1042 1043 1043 1041 1041 1040 1040 1040 1040 1037 1039 1040 1038 1039 1040 1038 1038 1038 1037 1037 1035 1036 1034 1034 1034 1035 1034 1035 1034 1033 1031 1031 1031 1031 1031 1031 1031 1031 1032 1031 1030 1029 1030 1028 1028 1028 1027 1027 1025 1025 1025 1025 1025 1028 1028 1028 1028 1028 1028 1028 1026 1026 1026 1026 1024 1023 1023 1023 1023 1022 1022 1022 1021 1019 1020 1019 1019 1018 1019 1019 1019 1019 1018 1018 1019 1019 1018 1019 1019 1017 1017 1018 1016 1016 1016 1013 1013 1014 1013 1013 1010 1010 1010 1011 1011 1010 1010 1010 1010 1010 1010 1010 1010 1010 1010 1009 1007 1008 1008 1011 1009 1010 1009 1010 1009 1010 1010 1010 1010 1010 1009 1007 1007 1007 1007 1007 1007 1009 1010 1010 1010 1010 1010 1010 1009 1009 1008 1007 1006 1005 1004
1163 1162 1162 1163 1160 1162 1162 1162 1163 1163 1162 1159 1162 1160 1160 1160 1159 1160 1159 1161 1160 1158 1158 1157 1157 1157 1158 1157 1157 1157 1156 1157 1157 1157 1157 1154 1155 1154 1153 1153 1156 1155 1155 1156 1155 1155 1157 1156 1155 1155 1155 1155 1155 1155 1154 1153 1153 1153 1152 1152 1151 1151 1151 1151 1150 1151 1150 1148 1149 1150 1148 1147 1147 1147 1147 1146 1144 1144 1142 1144 1142 1142 1142 1142 1142 1143 1143 1143 1142 1143 1143 1141 1143 1141 1141 1139 1139 1139 1139 1139 1138 1138 1138 1136 1136 1136 1140 1139 1139 1139 1135 1135 1134 1133 1134 1133 1133 1133 1133 1133 1133 1133 1130 1130 1132 1131 1130 1132 1132 1132 1132 1132 1131 1129 1129 1128 1128 1128 1124 1123 1121 1121 1118 1119 1119 1121 1120 1121 1120 1121 1121 1120 1120 1119 1119 1119 1118 1118 1118 1117 1115 1115 1115 1115 1116 1115 1114 1115 1113 1113 1113 1117 1114 1114 1112 1114 1115 1113 1113 1113 1113 1111 1110 1110 1109 1110 1110 1110 1110 1110 1110 1109 1109 1109 1109 1109 1109 1109 1109 1107 1106 1105 1105 1105 1105 1104 1104 1104 1104 1103 1103 1103 1102 1102 1102 1103 1101 1101 1101 1101 1100 1097 1097 1095 1096 1096 1094 1093 1095 1093 1095 1094 1093 1094 1094 1094 1093 1097 1097 1096 1095 1096 1095 1096 1094 1094 1094 1095 1095 1094 1092 1091 1092 1092 1092 1091 1091 1091 1092 1091 1091 1090 1090 1090 1089 1088 1086 1087 1085 1084 1083 1083 1082 1081 1082 1082 1082 1081 1082 1081 1080 1080 1079 1079 1079 1080 1081 1081 1081 1080 1081 1080 1081 1080 1078 1079 1079 1079 1079 1079 1079 1079 1083 1083 1083 1083 1082 1081 1080 1079 1077 1077 1076 1075 1075 1075 1074 1074 1074 1073 1073 1072 1073 1071 1071 1071 1071 1071 1072 1072 1071 1070 1069 1070 1070 1070 1070 1071 1071 1072 1072 1072 1072 1072 1072 1072 1070 1069 1069 1068 1067 1066 1064 1064 1065 1065 1063 1065 1063 1064 1064 1065 1063 1063 1063 1060 1060 1060 1063 1063 1064 1063 1063 1063 1063 1063 1061 1060 1060 1060 1060 1060 1060 1060 1060 1060 1060 1057 1060 1060 1060 1056 1058 1054 1055 1055 1055 1055 1055 1054 1053 1053 1053 1053 1052 1050 1050 1050 1051 1050 1051 1050 1050 1050 1050 1050 1050 1050 1050 1050 1048 1048 1048 1047 1047 1047 1047 1049 1048 1047 1047 1047 1047 1050 1047 1047 1048 1048 1048 1048 1046 1047 1045 1045 1044 1043 1043 1043 1043 1041 1040 1040 1040 1040 1040 1037 1037 1037 1037 1037 1037 1037 1037 1037 1037 1037 1035 1036 1035 1034 1034 1035 1035 1035 1035 1034 1034 1031 1031 1031 1031 1031 1031 1032 1032 1031 1030 1029 1028 1028 1028 1028 1026 1026 1025 1025 1025 1025 1025 1028 1028 1028 1028 1028 1028 1028 1026 1026 1026 1026 1025 1023 1023 1022 1023 1022 1022 1022 1019 1019 1019 1019 1019 1019 1019 1019 1019 1019 1019 1018 1019 1019 1017 1019 1018 1017 1016 1017 1016 1016 1016 1013 1012 1013 1013 1012 1011 1010 1010 1010 1011 1009 1009 1009 1009 1010 1010 1010 1010 1009 1009 1009 1009 1008 1008 1011 1010 1010 1010 1010 1010 1010 1010 1010 1010 1010 1008 1007 1007 1007 1007 1007 1007 1007 1008 1008 1009 1008 1010 1008 1009 1007 1007  755  753  753  751
1163 1164 1163 1162 1161 1162 1161 1162 1162 1163 1161 1159 1161 1159 1159 1159 1159 1157 1159 1160 1157 1157 1157 1157 1156 1157 1157 1156 1156 1156 1157 1156 1156 1156 1157 1155 1155 1154 1153 1152 1155 1155 1155 1155 1155 1155 1156 1155 1155 1156 1156 1155 1155 1155 1154 1153 1153 1153 1152 1153 1151 1151 1151 1151 1150 1150 1148 1145 1148 1148 1147 1147 1148 1147 1146 1146 1144 1143 1143 1143 1143 1141 1141 1142 1142 1143 1143 1143 1140 1141 1143 1141 1142 1142 1141 1140 1139 1139 1139 1139 1138 1138 1138 1135 1135 1136 1137 1137 1137 1135 1133 1133 1133 1133 1133 1133 1133 1133 1133 1133 1133 1131 1131 1130 1130 1130 1129 1130 1131 1131 1131 1131 1129 1129 1129 1128 1128 1127 1124 1124 1122 1121 1121 1121 1120 1121 1120 1119 1119 1120 1120 1120 1120 1119 1119 1120 1119 1118 1118 1117 1115 1115 1114 1114 1116 1114 1114 1115 1114 1114 1114 1115 1114 1113 1112 1114 1115 1113 1113 1113 1113 1110 1112 1111 1110 1110 1110 1110 1110 1109 1109 1107 1107 1109 1108 1108 1108 1109 1109 1107 1106 1106 1104 1104 1104 1104 1104 1104 1104 1104 1104 1104 1102 1103 1102 1102 1100 1101 1101 1101 1101 1098 1097 1096 1095 1095 1094 1094 1094 1093 1094 1093 1093 1094 1094 1093 1093 1095 1095 1095 1094 1094 1094 1095 1093 1094 1093 1094 1093 1093 1091 1090 1090 1092 1091 1088 1091 1089 1092 1090 1091 1090 1090 1089 1089 1088 1084 1087 1084 1084 1082 1082 1082 1082 1082 1083 1083 1082 1082 1081 1080 1081 1080 1079 1079 1080 1081 1081 1081 1080 1080 1080 1081 1078 1078 1079 1079 1079 1079 1079 1079 1079 1083 1083 1083 1083 1082 1079 1078 1076 1077 1076 1074 1074 1074 1074 1073 1074 1073 1073 1072 1072 1072 1071 1071 1071 1070 1071 1072 1072 1070 1069 1069 1070 1069 1070 1068 1070 1071 1071 1071 1071 1071 1071 1072 1072 1070 1069 1069 1069 1068 1067 1066 1065 1065 1065 1065 1065 1065 1065 1065 1065 1065 1063 1063 1060 1060 1060 1063 1063 1063 1063 1063 1063 1063 1062 1061 1061 1060 1060 1060 1060 1060 1060 1060 1060 1060 1056 1059 1060 1060 1056 1056 1053 1054 1055 1055 1055 1055 1055 1053 1053 1053 1053 1050 1050 1050 1050 1051 1051 1051 1050 1050 1050 1050 1050 1050 1050 1050 1050 1048 1048 1047 1047 1047 1047 1047 1048 1048 1047 1047 1047 1046 1049 1047 1047 1047 1047 1047 1047 1045 1046 1045 1045 1043 1043 1043 1043 1043 1040 1040 1040 1040 1040 1040 1037 1037 1037 1037 1037 1037 1037 1037 1037 1037 1035 1034 1034 1034 1034 1034 1034 1034 1034 1034 1033 1033 1031 1031 1031 1031 1029 1031 1031 1032 1030 1031 1028 1028 1028 1028 1028 1026 1026 1025 1025 1025 1025 1025 1028 1028 1028 1028 1028 1027 1027 1026 1026 1026 1026 1025 1023 1023 1022 1022 1022 1022 1022 1019 1019 1019 1019 1019 1018 1019 1019 1019 1019 1019 1019 1019 1019 1018 1019 1019 1017 1017 1018 1017 1016 1015 1013 1011 1013 1013 1012 1010 1011 1011 1010 1010 1009 1009 1009 1009 1010 1010 1010 1010 1009 1009 1009 1009 1008 1008 1011 1010 1011 1010 1010 1010 1010 1010 1010 1010 1010 1008 1007 1007 1007 1007 1007 1007 1007 1007 1009 1010 1010 1010 1009 1009 1007 1007 1007  751  752  751
1163 1165 1164 1163 1161 1162 1161 1162 1163 1163 1162 1162 1162 1160 1160 1161 1159 1158 1157 1158 1158 1158 1158 1158 1157 1157 1156 1155 1155 1155 1155 1156 1156 1156 1156 1156 1154 1155 1152 1152 1155 1154 1154 1155 1155 1156 1158 1156 1156 1156 1156 1156 1156 1154 1154 1154 1154 1153 1152 1152 1151 1151 1151 1150 1149 1148 1147 1147 1147 1148 1146 1148 1148 1148 1148 1147 1145 1144 1143 1144 1143 1143 1142 1142 1143 1143 1143 1142 1140 1141 1142 1141 1141 1141 1140 1140 1140 1139 1139 1139 1139 1139 1138 1135 1135 1135 1137 1136 1136 1133 1133 1133 1133 1132 1133 1133 1133 1132 1133 1133 1132 1132 1130 1130 1130 1131 1129 1129 1130 1130 1130 1129 1129 1129 1128 1128 1127 1127 1124 1124 1122 1121 1121 1121 1120 1121 1120 1120 1120 1121 1121 1121 1120 1120 1120 1121 1119 1119 1118 1116 1115 1115 1114 1113 1114 1113 1113 1113 1112 1113 1111 1113 1111 1112 1110 1112 1113 1113 1111 1113 1113 1110 1111 1110 1110 1110 1110 1108 1109 1109 1107 1107 1107 1108 1107 1107 1107 1108 1109 1106 1106 1106 1104 1104 1104 1104 1104 1104 1104 1104 1104 1104 1103 1102 1102 1102 1102 1103 1101 1101 1100 1098 1096 1095 1095 1095 1095 1094 1094 1093 1094 1094 1094 1094 1094 1094 1094 1095 1095 1096 1097 1094 1095 1095 1093 1092 1093 1094 1093 1093 1091 1092 1092 1093 1092 1089 1090 1089 1093 1091 1091 1090 1090 1088 1086 1086 1084 1084 1083 1083 1083 1083 1083 1083 1083 1083 1083 1083 1084 1081 1080 1080 1080 1079 1079 1080 1081 1081 1081 1081 1081 1080 1080 1079 1079 1079 1079 1079 1079 1079 1079 1079 1083 1081 1082 1082 1080 1079 1077 1076 1077 1076 1074 1074 1074 1074 1074 1074 1073 1073 1073 1073 1073 1071 1071 1071 1071 1071 1072 1072 1070 1069 1069 1069 1068 1069 1068 1069 1069 1071 1069 1069 1069 1069 1069 1069 1069 1069 1069 1069 1068 1067 1066 1066 1066 1066 1066 1065 1065 1065 1065 1065 1065 1063 1063 1062 1060 1060 1063 1063 1063 1063 1063 1062 1062 1062 1062 1062 1060 1061 1060 1060 1060 1060 1060 1060 1060 1056 1057 1057 1057 1056 1056 1053 1053 1054 1055 1055 1054 1054 1053 1053 1053 1053 1053 1050 1053 1052 1053 1051 1053 1050 1050 1050 1050 1050 1050 1050 1050 1050 1048 1048 1047 1047 1047 1047 1047 1048 1048 1048 1047 1047 1046 1049 1047 1047 1047 1047 1046 1047 1045 1046 1044 1044 1044 1042 1042 1043 1043 1041 1040 1040 1040 1040 1040 1038 1039 1037 1037 1037 1037 1037 1037 1037 1036 1035 1035 1034 1036 1036 1035 1034 1034 1034 1034 1034 1033 1032 1031 1032 1031 1031 1031 1031 1031 1031 1031 1028 1029 1028 1028 1028 1025 1025 1025 1025 1025 1025 1025 1028 1028 1028 1028 1028 1027 1027 1026 1026 1026 1026 1025 1023 1023 1022 1022 1022 1021 1022 1019 1019 1019 1019 1019 1019 1019 1019 1019 1019 1019 1019 1019 1019 1018 1019 1018 1017 1016 1016 1016 1016 1015 1013 1012 1013 1012 1012 1012 1011 1011 1010 1010 1009 1012 1009 1009 1009 1010 1010 1010 1010 1010 1009 1010 1010 1008 1011 1010 1010 1010 1010 1010 1010 1010 1010 1010 1009 1008 1007 1007 1007 1007 1007 1006 1007 1007 1007 1008 1007 1009 1007 1008 1007 1005 1005 1003 1001 1001
1163 1163 1163 1161 1161 1161 1161 1162 1162 1162 1159 1159 1160 1159 1159 1158 1158 1157 1157 1158 1157 1157 1156 1156 1156 1158 1156 1155 1155 1155 1155 1155 1156 1156 1157 1156 1154 1155 1154 1153 1154 1154 1154 1156 1155 1157 1158 1157 1157 1157 1157 1156 1156 1154 1154 1154 1154 1152 1151 1151 1151 1151 1151 1150 1148 1147 1145 1145 1145 1146 1146 1147 1147 1147 1147 1146 1144 1144 1143 1144 1143 1143 1142 1142 1142 1143 1143 1141 1140 1140 1141 1140 1140 1140 1140 1140 1140 1140 1139 1141 1139 1139 1139 1136 1135 1135 1137 1135 1136 1133 1133 1133 1133 1132 1133 1133 1133 1132 1133 1133 1132 1133 1131 1131 1132 1131 1131 1130 1132 1129 1129 1129 1129 1129 1128 1127 1126 1126 1124 1123 1122 1121 1121 1121 1120 1120 1120 1119 1119 1120 1120 1120 1120 1119 1121 1121 1119 1118 1118 1116 1115 1113 1112 1112 1113 1110 1110 1110 1110 1107 1110 1111 1110 1112 1110 1111 1113 1111 1110 1112 1111 1108 1108 1108 1108 1107 1107 1106 1107 1108 1106 1103 1103 1106 1104 1104 1105 1107 1109 1106 1106 1105 1105 1104 1104 1102 1102 1102 1103 1103 1102 1103 1101 1102 1101 1102 1102 1102 1101 1102 1101 1098 1096 1094 1095 1095 1095 1094 1094 1093 1096 1097 1095 1094 1095 1094 1094 1095 1094 1094 1094 1094 1094 1093 1092 1092 1093 1093 1093 1092 1090 1091 1090 1093 1091 1088 1089 1088 1093 1090 1090 1090 1089 1085 1086 1084 1084 1084 1083 1083 1083 1083 1083 1083 1083 1084 1083 1082 1082 1080 1080 1080 1079 1079 1079 1080 1080 1081 1081 1080 1080 1079 1080 1078 1078 1079 1079 1079 1079 1079 1079 1079 1083 1079 1079 1080 1078 1077 1076 1075 1076 1075 1074 1074 1074 1074 1074 1074 1073 1073 1073 1072 1072 1071 1072 1071 1070 1070 1072 1072 1069 1069 1069 1069 1068 1068 1068 1069 1069 1068 1069 1069 1069 1069 1069 1069 1069 1069 1069 1069 1067 1067 1066 1066 1066 1066 1066 1065 1065 1064 1065 1065 1065 1064 1063 1063 1060 1060 1063 1062 1063 1063 1062 1062 1062 1062 1062 1062 1060 1060 1060 1059 1059 1060 1060 1060 1059 1056 1057 1059 1059 1056 1056 1054 1055 1055 1055 1055 1055 1055 1053 1053 1053 1053 1053 1051 1053 1050 1053 1050 1051 1050 1050 1050 1050 1050 1050 1050 1050 1050 1048 1049 1047 1047 1047 1047 1047 1048 1048 1047 1047 1047 1046 1049 1047 1047 1047 1047 1046 1046 1045 1044 1044 1044 1044 1041 1042 1043 1042 1041 1041 1040 1040 1040 1040 1039 1039 1037 1037 1037 1037 1037 1037 1037 1037 1037 1037 1037 1037 1037 1037 1034 1034 1036 1036 1034 1033 1033 1031 1031 1031 1030 1031 1031 1031 1030 1031 1028 1029 1028 1028 1028 1028 1025 1025 1025 1026 1025 1025 1029 1028 1028 1028 1028 1027 1027 1026 1026 1026 1023 1024 1024 1022 1022 1021 1021 1022 1021 1019 1019 1019 1019 1019 1019 1019 1017 1017 1018 1018 1016 1018 1018 1017 1018 1018 1016 1016 1016 1016 1016 1016 1013 1013 1013 1012 1012 1011 1011 1010 1010 1010 1010 1012 1011 1010 1010 1010 1010 1010 1010 1010 1009 1010 1010 1008 1011 1010 1010 1010 1010 1010 1010 1010 1010 1010 1008 1008 1007 1007 1007 1007 1007 1005 1007 1006 1007 1007 1007 1007 1006 1005 1005 1005 1004 1001 1001 1001
1162 1162 1163 1158 1159 1161 1160 1162 1163 1162 1160 1159 1160 1159 1159 1157 1156 1157 1157 1158 1156 1156 1156 1156 1157 1158 1156 1156 1156 1156 1156 1156 1156 1156 1156 1156 1155 1154 1153 1153 1155 1154 1155 1155 1155 1157 1158 1157 1157 1158 1157 1156 1155 1155 1155 1154 1154 1153 1152 1152 1152 1151 1151 1150 1149 1147 1145 1145 1146 1147 1146 1147 1146 1147 1147 1147 1144 1143 1144 1144 1143 1143 1143 1143 1142 1142 1143 1141 1140 1140 1140 1140 1140 1140 1140 1140 1140 1140 1139 1140 1139 1139 1139 1136 1135 1135 1135 1135 1133 1133 1133 1133 1133 1132 1133 1133 1133 1132 1133 1133 1131 1131 1129 1129 1129 1129 1130 1130 1130 1129 1129 1129 1129 1129 1129 1127 1127 1128 1126 1126 1124 1124 1122 1122 1121 1121 1120 1120 1121 1121 1121 1121 1121 1120 1121 1120 1118 1118  837  836  835  834  830  833  832  827  828  828  827  554  554  833 1110 1108 1108 1109 1108 1107 1108 1110 1106 1104 1106 1106 1106 1106 1104 1104 1105 1105 1105 1103 1103 1103 1102 1102 1102 1104 1105 1105 1104 1102 1103 1102 1103 1101 1100 1100 1102 1101 1101 1101 1100 1102 1100 1101 1100 1100 1100 1101 1101 1097 1096 1093 1093 1095 1095 1093 1093 1094 1095 1096 1094 1094 1094 1093 1093 1097 1096 1096 1097 1096 1094 1095 1092 1092 1093 1092 1091 1091 1090 1091 1090 1092 1091 1091 1089 1089 1092 1089  819  817 1085 1085 1085 1084 1083 1083 1083 1083 1083 1083 1083 1083 1083 1083 1083 1083 1083 1080 1080 1079 1079 1079 1079 1080 1080 1080 1080 1080 1080 1078 1080 1078 1078 1079 1079 1076 1076 1078 1077 1078 1080 1078 1078 1078 1077 1076 1074 1074 1074 1074 1074 1073 1073 1073 1073 1073 1073 1073 1073 1072 1072 1072 1072 1071 1070 1070 1070 1070 1069 1069 1069 1069 1068 1068 1068 1069 1069 1067 1069 1069 1069 1069 1069 1069 1068 1068 1068 1068 1066 1066 1066 1066 1066 1066 1066 1065 1064 1063 1063 1063 1064 1063 1062 1061 1060 1060 1062 1062 1062 1062 1062 1062 1062 1062 1062 1062 1060 1060 1059 1059 1058 1058 1059 1059 1057 1056 1056 1058 1057 1056 1056 1054 1055 1055 1055 1055 1055 1053 1053 1053 1053 1053 1050 1050 1050 1050 1052 1050 1050 1049 1049 1049 1048 1050 1049 1050 1049 1049 1048 1047 1048 1047 1047 1047 1048 1048 1047 1048 1047 1046 1046 1049 1047 1047 1047 1046 1044 1045 1044 1044 1044 1044 1044 1041 1044 1043 1042 1041 1041 1040 1040 1040 1040 1040 1040 1038 1037 1037 1037 1037 1037 1037 1037 1037 1037 1037 1037 1037 1037 1034 1034 1034 1034 1034 1033 1033 1031 1031 1030 1030 1030 1030 1030 1030 1030 1028 1028 1028 1028 1027 1027 1025 1025 1025 1025 1025 1025 1029 1028 1029 1028 1028 1027 1027 1026 1026 1025 1024 1024 1024 1022 1022 1021 1021 1021 1021 1019 1019 1019 1019 1019 1019 1019 1017 1017 1018 1018 1016 1017 1016 1017 1018 1018 1016 1016 1016 1016 1016 1016 1016 1013 1013 1013 1012 1012 1012 1011 1010 1011 1010 1012 1010 1009 1008 1010 1010 1010 1010 1010 1009 1010 1010 1008 1011 1010 1010 1010 1010 1010 1007 1008 1007 1007 1007 1006 1007 1005 1007 1006 1007 1005 1005 1006 1007 1007 1006 1005 1003 1003 1003 1002 1001 1001 1001 1001
1164 1163 1164 1158 1161 1162 1161 1161 1163 1162 1162 1162 1162 1160 1159 1156 1156 1156 1155 1156 1155 1155 1156 1156 1156 1156 1156 1155 1156 1156 1155 1155 1156 1155 1155 1155 1155 1153 1153 1154 1155 1156 1156 1157 1156 1157 1157 1157 1158 1156 1156 1155 1155 1155 1155 1154 1154 1153 1152 1152 1152 1151 1151 1150 1149 1148 1147 1145 1147 1147 1147 1147 1147 1147 1147 1146 1144 1144 1144 1144 1144 1143 1143 1143 1143 1143 1143 1141 1140 1140 1140 1140 1140 1140 1140 1140 1140 1140 1139 1140 1139 1139 1139 1136 1134 1134 1135 1133 1133 1133 1133 1133 1133 1133 1135 1133 1133 1132 1132 1132 1130 1131 1129 1129 1130 1130 1129 1129 1129 1128 1128 1128 1128 1128 1128 1128 1128 1128 1125 1127 1124 1123 1122 1122 1122 1121 1121 1121 1121 1123 1120 1119 1119 1119  843  839  838  840  826  833  826  826  826  545  545  545  548  548  271  269  276  276  831 1108 1101 1101 1102 1097 1097 1102 1101 1100 1101 1103 1103 1103 1102 1101 1102 1102 1101 1099 1098 1098 1098 1097 1097 1102 1103 1103 1102 1102 1104 1101 1101 1101 1101 1100 1100 1100 1100 1100 1098 1098 1100 1101 1100 1101 1100 1100 1101 1097 1096 1093 1095 1095 1093 1093 1093 1094 1094 1095 1094 1094 1093 1093 1091 1094 1093 1094 1097 1096 1094 1095 1094 1092 1093 1093 1093 1092 1089 1091 1090 1092 1092 1089 1089 1088 1089 1089  819  814 1085 1084 1084 1082 1083 1083 1083 1083 1083 1083 1083 1083 1083 1083 1083 1083 1083 1081 1082 1079 1079 1079 1080 1080 1080 1080 1079 1080 1080 1078 1079 1079 1078 1079 1079 1077 1078 1078 1078 1078 1081 1077 1077 1079 1076 1077 1074 1074 1074 1074 1073 1073 1073 1074 1073 1073 1073 1073 1073 1073 1073 1071 1071 1070 1070 1070 1069 1069 1069 1069 1069 1069 1068 1068 1068 1068 1069 1067 1067 1067 1069 1069 1069 1069 1068 1068 1069 1068 1066 1066 1066 1066 1066 1066 1066 1065 1065 1064 1064 1064 1065 1063 1061 1061 1060 1060 1063 1062 1062 1062 1062 1062 1062 1062 1062 1062 1060 1060 1060 1059 1058 1056 1057 1056 1056 1056 1056 1056 1056 1056 1056 1054 1054 1054 1055 1055 1054 1054 1053 1053 1053 1053 1052 1050 1050 1050 1050 1050 1050 1049 1049 1049 1047 1050 1047 1048 1047 1048 1047 1047 1048 1047 1047 1047 1048 1048 1047 1047 1047 1046 1044 1047 1047 1046 1046 1044 1044 1044 1044 1044 1044 1044 1044 1042 1044 1042 1042 1040 1041 1040 1040 1040 1040 1038 1039 1038 1037 1037 1037 1037 1037 1037 1037 1037 1037 1037 1037 1036 1034 1034 1034 1034 1034 1034 1034 1034 1032 1031 1031 1030 1030 1030 1029 1030 1030 1028 1028 1028 1028 1027 1027 1025 1025 1025 1025 1025 1025 1028 1028 1028 1028 1028 1028 1026 1026 1026 1025 1024 1025 1024 1024 1023 1022 1022 1022 1022 1021 1020 1020 1020 1019 1019 1019 1017 1016 1016 1017 1016 1016 1016 1016 1017 1016 1016 1016 1016 1016 1016 1016 1016 1014 1013 1013 1012 1010 1013 1011 1010 1010 1010 1012 1010 1010 1009 1010 1010 1010 1010 1009 1009 1010 1009 1008 1011 1010 1010 1010 1010 1009 1007 1007 1007 1007 1007 1005 1004 1004 1006 1004 1004 1005 1005 1006 1007 1007 1005 1004 1003 1001 1003 1003 1001 1001 1001 1001
1165 1163 1163 1159 1163 1162 1159 1158 1163 1162 1162 1161 1160 1160 1159 1157 1157 1157 1157 1157 1155 1156 1156 1156 1156 1156 1156 1155 1156 1155 1155 1155 1155 1155 1155 1155 1154 1153 1153 1154 1154 1154 1156 1155 1155 1157 1157 1155 1155 1155 1156 1155 1155 1155 1155 1154 1154 1154 1154 1154 1152 1151 1150 1150 1150 1148 1147 1146 1147 1147 1146 1147 1147 1147 1145 1144 1144 1144 1144 1144 1144 1143 1143 1143 1143 1142 1143 1140 1140 1140 1141 1140 1141 1140 1140 1140 1140 1140 1139 1139 1139 1139 1137 1136 1133 1132 1133 1133 1133 1133 1133 1133 1133 1133 1133 1133 1132 1132 1132 1132 1132 1133 1130 1130 1130 1130 1131 1129 1129 1128 1128 1128 1128 1128 1128 1127 1127 1126 1126 1126 1124 1124 1122 1122 1122 1121 1119 1119 1121 1120  841  840  840  840  840  840  831  821  821  821  824  545  545  544  543  544  543  270  270  269  269  269  825 1094 1093 1093 1094 1090 1093 1094 1094 1095 1095 1098 1097 1097 1097 1096 1099 1096 1096 1094 1093 1093 1094 1096 1094 1096 1099 1096 1102 1100 1098 1097 1100 1102 1101 1100 1101 1101 1101 1100 1099 1099 1100 1102 1100 1099 1100 1098 1099 1097 1096 1093 1093 1094 1093 1093 1093 1093 1094 1095 1093 1094 1093 1091 1090 1093 1094 1094 1095 1096 1094 1095 1095 1092 1093 1092 1092 1093 1088 1090 1090 1090 1089 1088 1088 1088 1089  817  814  814 1084 1083 1082 1082 1083 1083 1083 1083 1083 1083 1083 1083 1083 1083 1083 1083 1083 1081 1082 1079 1079 1079 1079 1078 1078 1080 1078 1078 1079 1078 1078 1079 1078 1079 1079 1078 1078 1079 1077 1077 1081 1078 1077 1077 1075 1075 1074 1074 1074 1074 1073 1073 1073 1073 1073 1073 1073 1073 1073 1072 1073 1070 1070 1070 1069 1069 1069 1069 1069 1069 1068 1068 1068 1070 1069 1069 1069 1066 1067 1067 1068 1067 1068 1068 1066 1067 1067 1066 1064 1065 1066 1066 1066 1066 1064 1065 1065 1064 1064 1064 1064 1063 1061 1060 1060 1059 1062 1062 1062 1062 1062 1062 1062 1062 1062 1062 1060 1060 1060 1059 1058 1056 1056 1056 1056 1055 1055 1055 1055 1053 1054 1053 1055 1054 1055 1054 1053 1053 1053 1053 1053 1053 1052 1052 1051 1050 1050 1050 1050 1049 1049 1049 1047 1050 1047 1048 1047 1050 1047 1047 1048 1047 1047 1048 1048 1047 1046 1047 1047 1044 1044 1047 1047 1046 1047 1044 1044 1044 1044 1044 1042 1044 1042 1040 1042 1042 1042 1041 1042 1040 1040 1040 1040 1038 1040 1038 1037 1037 1037 1037 1037 1037 1037 1037 1037 1037 1037 1037 1034 1034 1034 1034 1034 1034 1034 1033 1033 1031 1031 1031 1030 1030 1029 1028 1028 1028 1028 1028 1028 1028 1027 1027 1026 1026 1026 1026 1027 1029 1028 1028 1028 1028 1028 1026 1026 1025 1025 1024 1025 1024 1024 1023 1022 1022 1022 1022 1021 1020 1019 1019 1019 1019 1019 1017 1016 1017 1017 1016 1017 1016 1017 1016 1016 1016 1016 1016 1016 1016 1016 1016 1015 1013 1013 1013 1010 1013 1013 1012 1011 1010 1012 1010 1010 1008 1009 1010 1009 1009 1007 1007 1008 1008 1008 1011 1010 1008 1009 1009 1008 1007 1007 1007 1007 1007 1005 1006 1005 1006 1004 1004 1005 1004 1005 1007 1004 1004 1004 1001 1001 1001 1001 1001 1001 1001 1001
1165 1163 1163 1158 1165 1160 1156 1157 1163 1162 1162 1160 1159 1159 1159 1156 1156 1156 1155 1156 1155 1156 1156 1156 1157 1157 1156 1155 1156 1155 1155 1155 1155 1155 1154 1153 1152 1152 1152 1154 1155 1155 1155 1155 1155 1155 1155 1155 1155 1155 1155 1155 1155 1155 1155 1154 1154 1153 1155 1154 1154 1152 1150 1150 1150 1148 1148 1146 1147 1147 1146 1147 1147 1146 1146 1144 1144 1144 1144 1143 1143 1144 1143 1143 1143 1142 1142 1140 1140 1140 1140 1140 1140 1140 1140 1140 1140 1140 1140 1139 1139 1139 1136 1135 1133 1133 1134 1133 1133 1133 1133 1133 1133 1132 1133 1133 1132 1132 1132 1132 1132 1132 1132 1131 1131 1130 1131 1129 1128 1128 1128 1127 1128 1128 1127 1127 1127 1126 1125 1126 1124 1118 1120 1117 1117 1120 1119 1120 1111 1111  832  841  841  559  279  840  271  542  542  814  816  544  544  542  542  542  542  269  269  269  269  269  815 1088 1089 1090 1090 1088 1090 1091 1092 1091 1095 1095 1095 1095 1095 1095 1095 1095 1093 1091 1090 1092 1092 1095 1092 1093 1093 1091 1095 1095 1094 1096 1100 1100 1100 1100 1100 1101 1100 1101 1096 1099 1102 1102 1102 1103 1102 1100 1102 1098 1097 1093 1093 1094 1093 1093 1093 1093 1093 1095 1093 1093 1093 1093 1092 1094 1095 1095 1096 1096 1096 1095 1095 1094 1094 1093 1090 1091 1089 1089 1089 1089 1089 1088 1089 1089 1089 1089 1084 1084 1084 1083 1083 1083 1083 1083 1083 1083 1083 1083 1083 1083 1083 1083 1083 1083 1083 1081 1081 1079 1079 1079 1078 1078 1078 1079 1078 1078 1078 1078 1079 1079 1078 1078 1081 1079 1079 1079 1077 1077 1082 1078 1076 1075 1075 1075 1073 1074 1073 1073 1072 1073 1072 1072 1073 1071 1071 1073 1071 1071 1071 1071 1070 1069 1070 1070 1069 1069 1068 1068 1068 1068 1068 1068 1067 1067 1067 1066 1067 1067 1068 1066 1066 1067 1066 1066 1066 1066 1063 1065 1066 1065 1064 1063 1063 1064 1064 1063 1063 1063 1063 1063 1062 1061 1060 1059 1063 1062 1062 1062 1062 1062 1062 1062 1062 1062 1060 1060 1060 1060 1058 1056 1056 1056 1056 1056 1056 1053 1053 1053 1053 1053 1054 1054 1054 1054 1053 1053 1053 1053 1052 1052 1052 1051 1051 1050 1050 1049 1049 1049 1049 1049 1047 1049 1047 1047 1047 1048 1047 1047 1048 1047 1047 1047 1048 1047 1046 1047 1047 1044 1045 1047 1047 1046 1047 1045 1044 1044 1044 1044 1042 1044 1041 1041 1043 1041 1042 1041 1041 1040 1040 1040 1040 1040 1040 1039 1037 1037 1037 1037 1037 1037 1037 1037 1037 1037 1037 1037 1034 1034 1034 1034 1034 1034 1033 1032 1031 1031 1029 1029 1028 1029 1029 1028 1028 1028 1028 1028 1028 1027 1027 1026 1026 1026 1026 1025 1025 1028 1028 1028 1028 1027 1026 1026 1025 1025 1024 1024 1024 1024 1024 1024 1022 1023 1022 1021 1020 1020 1019 1019 1019 1018 1018 1017 1016 1016 1016 1016 1016 1016 1016 1016 1016 1016 1016 1016 1016 1016 1016 1016 1016 1013 1013 1011 1010 1013 1011 1010 1010 1011 1010 1010 1010 1007 1007 1010 1010 1009 1007 1007 1007 1007 1006 1009 1008 1008 1008 1009 1008 1007 1007 1007 1007 1007 1005 1006 1005 1005 1004 1004 1004 1004 1004 1004 1004 1003 1003 1001 1001 1001 1004 1004 1002 1001 1002
1165 1163 1163 1158 1163 1158 1157 1157 1160 1161 1160 1160 1158 1158 1159 1157 1156 1156 1156 1156 1156 1155 1156 1157 1157 1157 1155 1155 1156 1155 1155 1155 1155 1155 1154 1153 1152 1152 1154 1154 1156 1156 1156 1155 1155 1154 1155 1155 1155 1155 1155 1155 1155 1155 1155 1154 1154 1155 1155 1154 1154 1153 1151 1150 1148 1147 1146 1146 1146 1146 1146 1146 1146 1146 1144 1144 1144 1144 1144 1143 1143 1143 1143 1143 1143 1142 1142 1141 1141 1139 1140 1140 1140 1140 1140 1140 1140 1140 1138 1139 1139 1139 1136 1135 1133 1133 1134 1135 1133 1134 1132 1133 1133 1132 1132 1132 1132 1132 1132 1132 1132 1132 1129 1129 1130 1129 1129 1128 1128 1127 1128 1126 1127 1128 1127 1126 1126 1124 1125 1126 1125 1117 1117 1117 1117 1087 1086 1094 1094 1094 1086 1086 1086  560  543  543  814  814  813  813  815  814  814  541  540  542  542  269  269  269  269  541 1086 1087 1086 1090 1088 1088 1088 1089 1089 1088 1087 1087 1091  817  817  815 1091 1089 1090 1090 1091 1090 1090 1090 1089 1090 1090 1089 1089 1089 1094 1095 1098 1097 1098 1099 1099 1099 1099 1098 1096 1096 1099 1101 1100 1100 1101 1099 1102 1098 1097 1092 1092 1091 1093 1093 1093 1092 1092 1093 1093 1092 1092 1093 1092 1096 1095 1094 1094 1094 1095 1094 1095 1093 1092 1092 1089 1090 1089 1089 1089 1091 1091 1090 1090 1089 1090 1089 1084 1084 1083 1083 1083 1083 1083 1083 1083 1083 1083 1083 1083 1083 1083 1083 1083 1083 1083 1081 1081 1079 1079 1079 1078 1078 1077 1078 1077 1078 1078 1078 1079 1080 1078 1078 1082 1080 1079 1078 1077 1076 1080 1078 1076 1076 1074 1075 1073 1073 1073 1073 1072 1072 1072 1072 1072 1072 1073 1073 1073 1071 1072 1070 1071 1069 1069 1069 1069 1069 1068 1068 1068 1068 1068 1067 1067 1065 1066 1064 1065 1065 1066 1065 1064 1066 1066 1065 1065 1065 1063 1065 1066 1065 1065 1063 1064 1064 1064 1063 1063 1063 1062 1062 1062 1061 1061 1061 1063 1062 1062 1062 1062 1062 1061 1061 1060 1060 1060 1060 1060 1060 1060 1059 1058 1059 1056 1056 1053 1053 1053 1052 1053 1053 1053 1053 1054 1053 1053 1053 1053 1053 1052 1052 1050 1051 1051 1051 1050 1049 1049 1048 1048 1047 1047 1047 1047 1047 1047 1047 1047 1047 1047 1047 1047 1047 1047 1047 1046 1046 1046 1044 1044 1047 1047 1045 1046 1044 1044 1044 1043 1044 1042 1043 1042 1041 1042 1041 1042 1040 1041 1040 1040 1040 1040 1039 1039 1040 1038 1037 1037 1037 1037 1037 1037 1037 1037 1037 1036 1036 1034 1034 1033 1034 1032 1031 1031 1031 1029 1029 1028 1028 1028 1028 1028 1028 1028 1028 1028 1028 1028 1028 1028 1027 1026 1026 1026 1025 1025 1027 1028 1028 1027 1027 1025 1024 1024 1024 1023 1024 1024 1023 1022 1023 1021 1021 1020 1020 1020 1020 1019 1019 1019 1018 1018 1017 1017 1016 1016 1016 1016 1016 1016 1016 1016 1016 1016 1016 1016 1015 1015 1016 1016 1014 1013 1012 1010 1012 1010 1011 1010 1010 1010 1010 1010 1008 1009 1010 1009 1009 1007 1007 1007 1005 1005 1008 1008 1007 1008 1008 1007 1007 1007 1007 1006 1006 1004 1004 1004 1004 1004 1004 1004 1004 1004 1004 1004 1005 1004 1003 1002 1003 1004 1004 1003 1002 1003
1164 1163 1163 1158 1163 1159 1156 1158 1160 1162 1162 1161 1160 1158 1159 1157 1156 1156 1156 1156 1156 1156 1157 1157 1157 1158 1156 1155 1157 1157 1155 1155 1155 1155 1154 1152 1152 1152 1152 1152 1156 1156 1156 1155 1155 1155 1155 1155 1155 1154 1153 1155 1155 1155 1155 1154 1154 1155 1155 1155 1153 1153 1152 1150 1148 1147 1144 1146 1146 1146 1146 1145 1146 1146 1145 1144 1144 1144 1143 1143 1143 1143 1143 1143 1143 1141 1142 1140 1141 1139 1140 1140 1140 1140 1139 1140 1140 1139 1138 1138 1138 1137 1136 1135 1134 1134 1136 1134 1135 1135 1132 1133 1132 1132 1132 1132 1132 1132 1132 1132 1133 1133 1131 1131 1131 1129 1128 1128 1128 1127 1128 1126 1127 1128 1128 1125 1125 1123 1116 1119 1116 1114 1116 1109 1090 1088 1087 1087 1087 1087 1087 1086 1086 1085 1085 1085  814  814  814  815  814  814  814  812  540  541  269  269  269  541  271  543 1087 1089 1088 1089 1088 1088 1085 1088 1088 1086 1085 1086  815  815  815  815  815 1089 1089 1087 1089 1089 1089 1089 1089 1089 1090 1090 1091 1092 1094 1096 1096 1099 1095 1099 1098 1098 1098 1099 1098 1097 1101 1102 1103 1102 1100 1099 1103 1097 1097 1092 1091 1091 1092 1092 1092 1092 1092 1093 1092 1092 1092 1092 1092 1093 1094 1093 1093 1094 1094 1093 1094 1093 1093 1092 1089 1090 1087 1089 1089 1089 1089 1090 1090 1089 1090 1087 1084 1084 1083 1083 1083 1083 1083 1083 1083 1083 1083 1083 1083 1083 1083 1083 1083 1082 1081 1079 1079 1079 1079 1079 1078 1078 1077 1078 1077 1078 1078 1078 1078 1080 1078 1078 1080 1078 1078 1077 1077 1076 1080 1078 1076 1075 1075 1075 1075 1073 1073 1073 1073 1073 1073 1073 1073 1071 1071 1071 1071 1069 1070 1070 1070 1069 1069 1069 1069 1069 1067 1068 1067 1068 1067 1068 1066 1065 1066 1064 1064 1065 1066 1063 1063 1063 1063 1065 1065 1063 1063 1064 1065 1064 1063 1063 1064 1063 1063 1063 1063 1063 1062 1062 1060 1060 1060 1060 1063 1062 1062 1062 1062 1060 1060 1060 1060 1060 1060 1060 1060 1060 1060 1059 1059 1059 1056 1055 1054 1053 1053 1053 1053 1053 1053 1053 1054 1053 1053 1053 1053 1053 1051 1051 1050 1051 1050 1050 1049 1049 1049 1048 1047 1047 1047 1047 1047 1047 1047 1047 1047 1047 1047 1047 1047 1047 1047 1046 1045 1046 1044 1043 1044 1047 1046 1045 1045 1044 1044 1044 1043 1044 1041 1042 1040 1040 1040 1040 1040 1040 1040 1040 1040 1040 1040 1038 1039 1040 1038 1037 1037 1037 1037 1037 1037 1037 1036 1036 1035 1034 1034 1034 1031 1031 1031 1031 1031 1031 1031 1031 1028 1029 1029 1030 1029 1028 1028 1028 1028 1028 1028 1028 1027 1025 1025 1025 1025 1025 1025 1027 1028 1027 1027 1026 1025 1024 1024 1023 1022 1022 1022 1022 1021 1022 1020 1020 1020 1020 1020 1020 1020 1019 1019 1019 1018 1018 1016 1017 1016 1016 1016 1016 1016 1015 1015 1015 1015 1015 1014 1015 1015 1015 1014 1013 1011 1011 1012 1012 1010 1010 1010 1010 1010 1010 1010 1010 1009 1009 1008 1008 1007 1007 1007 1005 1004 1007 1008 1006 1007 1007 1007 1007 1007 1007 1006 1006 1005 1005 1005 1005 1004 1004 1004 1004 1004 1005 1004 1004 1003 1003 1002 1003 1002 1003 1003 1001 1002
1164 1160 1162 1161 1161 1159 1157 1158 1160 1162 1161 1161 1160 1160 1159 1157 1156 1156 1156 1156 1156 1156 1156 1157 1157 1158 1157 1155 1157 1156 1156 1155 1155 1155 1154 1154 1152 1152 1152 1153 1156 1157 1156 1156 1155 1154 1155 1155 1154 1153 1151 1153 1154 1153 1151 1152 1153 1153 1155 1152 1151 1151 1151 1151 1148 1148 1145 1146 1145 1145 1145 1145 1145 1145 1145 1144 1144 1144 1143 1143 1143 1143 1143 1143 1141 1140 1140 1140 1140 1139 1140 1140 1140 1139 1139 1139 1139 1138 1137 1136 1138 1136 1135 1135 1133 1132 1135 1135 1135 1135 1132 1134 1132 1133 1133 1132 1132 1132 1133 1133 1133 1133 1131 1131 1130 1127 1129  844  844  844  846  845  845  845  845  844 1126 1124 1118 1118 1112  552  546 1088 1089 1088 1087 1086 1086 1086 1086 1086 1086 1084 1085 1085 1084 1084 1085 1085  814  814  813  812  542  811  539  539  269  271  270  543 1084 1086 1086 1088 1087 1088 1086 1088 1088 1087 1085 1086  815  816  816  814  815 1090 1090 1089 1090 1091 1090 1091 1090 1093 1095 1096 1098 1097 1100 1100 1100 1101 1095 1099 1098 1099 1099 1097 1099 1099 1102 1102 1102 1100 1098 1098 1097 1097 1095 1092 1092 1091 1091 1092 1090 1091 1091 1092 1092 1092 1092 1092 1091 1093 1093 1093 1094 1094 1094 1094 1095 1095 1093 1092 1092 1089 1087 1088 1087 1087 1089 1089 1090 1089 1090 1087 1085 1084 1083 1083 1083 1083 1083 1083 1083 1083 1083 1083 1083 1083 1083 1083 1082 1082 1081 1079 1079 1079 1079 1078 1078 1078 1078 1078 1077 1078 1078 1078 1079 1079 1078 1078 1080 1078 1077 1077 1075 1075 1080 1078 1076 1075 1073 1075 1073 1073 1073 1073 1072 1073 1072 1072 1069 1069 1069 1069 1069 1069 1069 1069 1069 1069 1069 1069 1069 1068 1067 1067 1066 1068 1066 1067 1066 1066 1066 1065 1065 1066 1066 1064 1063 1065 1065 1065 1063 1063 1062 1064 1063 1063 1063 1063 1063 1063 1063 1062 1062 1062 1061 1061 1060 1060 1059 1060 1062 1062 1062 1062 1061 1060 1060 1060 1060 1060 1060 1060 1060 1060 1060 1059 1059 1059 1055 1055 1053 1053 1053 1051 1052 1053 1054 1053 1053 1053 1052 1052 1051 1052 1050 1050 1050 1050 1049 1049 1049 1048 1049 1049 1047 1047 1047 1047 1047 1047 1047 1047 1047 1047 1047 1047 1047 1047 1047 1046 1044 1044 1044 1043 1043 1046 1044 1044 1045 1043 1043 1044 1042 1043 1041 1041 1040 1040 1040 1041 1040 1040 1040 1040 1040 1040 1039 1037 1039 1039 1037 1037 1037 1037 1037 1037 1037 1037 1036 1036 1035 1035 1034 1034 1032 1032 1033 1031 1032 1032 1031 1030 1028 1030 1028 1028 1028 1028 1028 1028 1028 1028 1027 1027 1027 1025 1025 1025 1025 1025 1025 1027 1027 1027 1026 1025 1023 1023 1023 1023 1022 1022 1021 1021 1021 1021 1020 1020 1020 1020 1020 1020 1020 1019 1019 1018 1018 1017 1016 1016 1016 1016 1016 1016 1016 1016 1016 1015 1016 1015 1013 1014 1013 1014 1013 1012 1010 1010 1010 1010 1010 1010 1010 1010 1010 1009 1010 1009 1009 1009 1007 1007 1007 1007 1005 1004 1004 1007 1007 1006 1007 1007 1007 1007 1007 1007 1006 1006 1004 1004 1004 1004 1004 1004 1004 1004 1004 1005 1004 1005 1004 1003 1004 1003 1002 1003 1003 1001 1001
1166 1162 1162 1161 1161 1159 1157 1157 1160 1162 1161 1160 1160 1159 1159 1159 1157 1157 1159 1160 1158 1157 1157 1157 1157 1157 1157 1155 1155 1155 1155 1155 1154 1154 1154 1154 1152 1152 1152 1152 1156 1156 1157 1155 1154 1154 1155 1154 1154 1153 1151 1154 1153 1153 1151 1151 1152 1153 1154 1152 1151 1151 1151 1151 1148 1148 1145 1145 1145 1145 1145 1145 1145 1144 1145 1144 1144 1144 1144 1143 1143 1143 1143 1143 1142 1141 1141 1141 1141 1139 1140 1140 1139 1139 1138 1139 1138 1138 1136 1134 1135 1134 1134 1134 1133 1132 1135 1137 1138 1136 1135 1135 1134 1133 1133 1132 1132 1132 1133 1133 1131 1133 1131 1131 1131 1128 1120  845  845  844  844  844  846  563  281  281  272  272  272  273  273  545  545 1088 1089 1089 1087 1087 1087 1087 1087 1087 1087 1085 1085 1085 1085 1084 1085 1085 1084 1083 1082 1082  811  810  269  269  269  271  270  541 1085 1086 1088 1088 1088 1088 1088 1086 1086 1087 1085  815  814  816  816  817  818 1096 1102 1100 1101 1100 1097 1098 1101 1100 1101 1100 1100 1100 1101 1101 1101 1104 1098 1101 1102 1103 1102 1097 1097 1097 1098 1102 1102 1098 1097 1096 1098 1096 1095 1093 1092 1091 1090 1091 1090 1090 1090 1092 1092 1092 1094 1094 1094 1093 1096 1094 1095 1095 1095 1095 1095 1095 1095 1093 1094 1092 1089 1090 1087 1088 1088 1086 1088 1088 1088 1087 1085 1083 1083 1083 1084 1083 1083 1083 1083 1083 1083 1083 1083 1082 1082 1083 1082 1082 1081 1079 1079 1079 1079 1078 1078 1077 1077 1078 1078 1078 1078 1079 1079 1080 1080 1078 1080 1078 1077 1077 1075 1074 1081 1078 1076 1075 1074 1074 1073 1073 1073 1073 1073 1073 1072 1070 1069 1070 1069 1069 1070 1069 1069 1069 1070 1069 1068 1069 1068 1068 1066 1066 1067 1067 1068 1066 1067 1066 1066 1065 1065 1066 1066 1063 1063 1063 1065 1063 1063 1062 1062 1064 1063 1063 1063 1064 1063 1063 1063 1063 1060 1060 1060 1060 1060 1060 1059 1059 1062 1062 1062 1062 1062 1060 1060 1060 1060 1060 1060 1060 1060 1060 1059 1059 1058 1058 1056 1055 1054 1053 1053 1050 1050 1051 1053 1051 1052 1052 1052 1051 1050 1051 1050 1050 1050 1050 1049 1049 1049 1048 1049 1049 1047 1047 1047 1047 1047 1047 1047 1047 1047 1047 1047 1047 1047 1046 1047 1044 1043 1043 1043 1042 1043 1044 1043 1043 1043 1041 1042 1042 1041 1041 1040 1042 1040 1040 1040 1040 1040 1040 1040 1039 1038 1038 1037 1037 1037 1037 1037 1037 1037 1037 1037 1037 1037 1037 1036 1036 1036 1035 1034 1034 1032 1032 1033 1032 1032 1032 1030 1028 1028 1028 1028 1028 1028 1028 1028 1028 1028 1028 1027 1027 1027 1026 1025 1025 1025 1024 1024 1026 1025 1025 1025 1023 1023 1022 1022 1023 1022 1022 1022 1021 1021 1022 1022 1020 1020 1020 1020 1020 1020 1019 1019 1019 1018 1017 1016 1016 1016 1016 1016 1016 1016 1015 1015 1016 1016 1014 1013 1013 1013 1016 1013 1013 1012 1011 1011 1012 1009 1009 1010 1009 1009 1007 1009 1007 1007 1007 1007 1007 1006 1007 1004 1004 1004 1007 1007 1006 1007 1007 1007 1006 1007 1005 1004 1004 1002 1003 1004 1004 1004 1004 1005 1004 1005 1004 1004 1004 1004 1003 1003 1002 1003 1003 1003 1000 1000
1166 1163 1163 1162 1162 1161 1157 1159 1161 1162 1159 1159 1158 1157 1158 1156 1157 1157 1157 1160 1159 1157 1157 1156 1156 1156 1155 1155 1155 1155 1155 1155 1153 1154 1154 1153 1152 1152 1151 1151 1155 1155 1156 1155 1155 1154 1154 1154 1154 1154 1151 1153 1154 1154 1151 1151 1152 1152 1154 1152 1151 1151 1151 1151 1147 1147 1144 1145 1145 1145 1145 1145 1145 1144 1145 1144 1144 1144 1144 1143 1143 1143 1142 1142 1142 1139 1140 1140 1140 1139 1140 1140 1139 1139 1136 1136 1138 1136 1134 1134 1134 1133 1134 1132 1133 1132 1136 1137 1138 1137 1134 1135 1133 1132 1131 1131 1131 1130 1132 1131 1130 1130 1126 1127 1116 1116 1116  834  561  561  563  281  845  845  272  272  272  272  272  272  273  545 1088 1088 1089 1087 1087 1087 1087 1087 1087 1087 1087 1085 1085 1085 1085 1085 1085 1084 1084 1084 1084 1082  540  540  269  269  269  269  270  271  812 1085 1087 1086 1086 1089 1087 1088  814  814  815  815  816  817  817  817  827 1104 1103 1104 1105 1103 1102 1103 1105 1104 1104 1104 1103 1103 1102 1104 1104 1104 1103 1104 1103 1104 1102 1099 1098 1100 1099 1102 1101 1099 1097 1097 1097 1096 1095 1093 1093 1093 1091 1091 1090 1090 1091 1092 1093 1094 1094 1094 1094 1096 1096 1095 1095 1095 1096 1096 1096 1096 1093 1092 1091 1091 1090 1089 1087 1088 1089 1087 1089 1088 1089 1088 1085 1085 1083 1085 1085 1085 1083 1083 1083 1083 1083 1083 1083 1082 1083 1083 1082 1082 1081 1080 1079 1079 1079 1078 1078 1077 1078 1077 1076 1078 1078 1078 1079 1079 1078 1078 1079 1078 1077 1077 1075 1075 1081 1078 1076 1075 1073 1074 1074 1073 1073 1073 1073 1073 1073 1072 1069 1070 1069 1069 1069 1069 1069 1070 1069 1069 1068 1068 1068 1068 1066 1067 1068 1068 1068 1067 1066 1066 1065 1065 1065 1066 1066 1064 1063 1063 1064 1063 1063 1062 1061 1063 1063 1063 1062 1063 1062 1061 1063 1060 1060 1060 1060 1060 1060 1060 1060 1060 1062 1063 1061 1061 1060 1060 1060 1060 1060 1060 1060 1060 1060 1060 1059 1059 1059 1058 1055 1055 1054 1053 1053 1051 1050 1052 1053 1051 1052 1052 1052 1050 1050 1051 1050 1050 1050 1049 1049 1049 1049 1049 1048 1048 1048 1048 1047 1047 1047 1047 1047 1047 1047 1047 1047 1047 1045 1044 1044 1044 1041 1042 1042 1042 1043 1045 1043 1043 1044 1043 1043 1042 1041 1042 1040 1040 1040 1040 1040 1040 1040 1040 1040 1039 1038 1038 1037 1037 1037 1037 1037 1037 1037 1037 1037 1037 1037 1037 1037 1036 1036 1035 1034 1034 1032 1032 1031 1031 1032 1031 1029 1028 1028 1028 1028 1028 1028 1028 1028 1028 1028 1028 1027 1027 1027 1027 1024 1024 1024 1024 1023 1024 1025 1024 1025 1023 1023 1022 1022 1023 1022 1022 1022 1021 1022 1023 1022 1021 1021 1020 1020 1020 1020 1019 1019 1019 1017 1016 1016 1016 1016 1016 1016 1016 1016 1016 1016 1016 1016 1015 1013 1013 1013 1013 1012 1012 1009 1009 1009 1010 1009 1009 1008 1008 1009 1007 1008 1007 1007 1006 1006 1006 1005 1005 1004 1004 1004 1007 1007 1007 1007 1007 1007 1007 1007 1007 1006 1005 1004 1004 1004 1004 1004 1004 1005 1004 1005 1006 1004 1007 1005 1004 1004 1003 1003 1003 1003 1000 1000
1166 1163 1164 1163 1162 1162 1158 1160 1162 1162 1159 1158 1158 1158 1158 1157 1158 1158 1158 1159 1159 1157 1157 1156 1156 1155 1156 1155 1155 1155 1155 1155 1155 1154 1154 1154 1152 1153 1153 1153 1156 1157 1158 1157 1157 1155 1155 1155 1154 1154 1151 1153 1153 1155 1151 1151 1152 1152 1153 1152 1151 1151 1151 1150 1145 1145 1144 1144 1144 1144 1144 1144 1144 1144 1144 1144 1144 1144 1143 1143 1142 1143 1142 1142 1141 1140 1139 1140 1139 1137 1138 1137 1136 1137 1136 1136 1136 1135 1134 1132 1132 1133 1134 1133 1133 1132 1135 1138 1139 1137 1134 1135 1133 1133 1131  849  849  848  848  849 1132 1131 1120 1114  831  832  831  832  822  820  821  555  553  272  272  272  272  272  272  272  544  816 1088 1088 1088 1087 1088 1088 1089 1088 1088 1088 1086 1086 1085 1085 1085 1086 1085 1084 1083 1083 1083  812  541  540  269  269  269  269  271  272  544  815 1087 1088 1087 1089  815  816  813  543  543  544  816  817  825  827 1104 1106 1106 1106 1106 1107 1105 1105 1107 1107 1106 1105 1104 1104 1104 1104 1104 1104 1102 1103 1103 1103 1103 1101 1100 1098 1099 1100 1099 1097 1097 1096 1096 1095 1094 1093 1093 1093 1091 1093 1090 1090 1091 1093 1093 1093 1094 1094 1094 1096 1096 1096 1096 1096 1096 1096 1094 1094 1092 1091 1090 1091 1090 1089 1088 1089 1090 1089 1090 1088 1089 1089 1087 1085 1085 1086 1085 1083 1083 1083 1083 1083 1083 1083 1083 1082 1082 1082 1082 1082 1081 1080 1079 1079 1079 1078 1077 1077 1077 1078 1076 1077 1078 1079 1079 1078 1078 1078 1078 1077 1077 1076 1074 1074 1080 1078 1076 1075 1074 1074 1073 1073 1073 1073 1073 1073 1073 1072 1069 1071 1069 1071 1070 1069 1070 1070 1070 1070 1069 1068 1067 1068 1067 1067 1068 1068 1068 1067 1066 1065 1065 1065 1065 1065 1065 1062 1063 1063 1064 1064 1063 1063 1061 1063 1063 1063 1061 1063 1060 1060 1060 1060 1060 1060 1060 1060 1060 1060 1060 1060 1062 1063 1061 1061 1060 1060 1060 1060 1060 1060 1060 1060 1059 1059 1059 1059 1059 1059 1055 1055 1054 1053 1053 1052 1050 1051 1052 1051 1051 1051 1051 1050 1050 1050 1049 1049 1049 1049 1049 1049 1049 1049 1049 1049 1048 1048 1047 1047 1047 1047 1047 1047 1047 1047 1047 1047 1045 1044 1043 1043 1040 1041 1041 1041 1042 1043 1043 1043 1043 1041 1043 1041 1040 1041 1040 1040 1040 1040 1040 1040 1040 1040 1039 1039 1038 1037 1037 1037 1037 1037 1037 1036 1036 1036 1037 1037 1037 1037 1037 1035 1035 1034 1034 1033 1031 1031 1031 1031 1031 1029 1028 1028 1028 1028 1028 1028 1028 1028 1028 1028 1026 1026 1025 1025 1025 1025 1024 1024 1024 1024 1023 1024 1025 1023 1025 1022 1022 1022 1022 1023 1022 1022 1022 1021 1021 1021 1021 1020 1021 1020 1019 1020 1020 1019 1019 1018 1016 1016 1016 1016 1016 1016 1016 1016 1016 1016 1016 1016 1016 1016 1013 1013 1013 1013 1012 1010 1009 1009 1009 1010 1009 1009 1010 1009 1010 1008 1009 1007 1007 1006 1005 1007 1006 1006 1004 1005 1004 1007 1007 1007 1007 1006 1007 1007 1007 1007 1005 1005 1004 1003 1002 1001 1001 1004 1004 1003 1004 1004 1004 1004 1004 1004 1003 1003 1003 1002 1002 1000 1000
1163 1163 1164 1164 1164 1162 1159 1159 1161 1160 1160 1158 1158 1157 1155 1156 1155 1156 1156 1157 1157 1155 1157 1155 1156 1155 1155 1155 1155 1155 1155 1155 1154 1153 1154 1154 1153 1153 1153 1151 1155 1155 1157 1155 1154 1154 1154 1155 1155 1154 1151 1153 1153 1154 1151 1152 1152 1153 1153 1152 1152 1152 1150 1150 1145 1146 1144 1144 1144 1143 1144 1143 1144 1144 1144 1144 1144 1144 1143 1142 1142 1143 1141 1143 1140 1140 1139 1139 1139 1136 1136 1136 1135 1136 1134 1135 1135 1136 1132 1132 1132 1132 1132 1132 1133 1132 1137 1140 1140 1138 1135  851  850  849  848  849  848  848  565  564  282  274  546  821 1095  822 1093 1095 1094 1094 1092 1092 1090 1091 1091 1091  818  818  818  816 1088 1088 1088 1088 1088 1087 1088 1088 1089 1088 1088 1089 1086 1086 1085 1085 1085 1086 1085 1085 1083 1083  812  812  541  540  269  269  269  269  269  271  544  544  815  815  815  272  275  276  276  545  545  825  827 1102 1103 1103 1104 1105 1109 1107 1107 1108 1106 1107 1107 1106 1106 1105 1104 1104 1104 1103 1103 1103 1103 1103 1103 1103 1104 1102 1100 1099 1098 1100 1098 1097 1096 1096 1095 1095 1093 1093 1093 1093 1093 1093 1090 1090 1092 1093 1093 1093 1093 1093 1094 1097 1096 1096 1096 1096 1096 1096 1094 1094 1093 1092 1090 1089 1089 1089 1088 1089 1090 1090 1090 1089 1089 1089 1086 1085 1085 1085 1083 1083 1083 1083 1083 1083 1083 1083 1083 1083 1082 1082 1082 1082 1081 1080 1079 1079 1079 1078 1078 1078 1078 1079 1077 1077 1078 1079 1079 1078 1078 1078 1078 1077 1077 1076 1074 1074 1078 1077 1076 1075 1073 1073 1074 1073 1073 1073 1073 1073 1073 1073 1072 1073 1072 1071 1071 1070 1070 1070 1071 1071 1069 1069 1067 1068 1067 1066 1066 1066 1066 1066 1066 1066 1065 1065 1066 1065 1064 1062 1062 1061 1063 1063 1063 1062 1063 1064 1063 1063 1062 1063 1061 1060 1060 1060 1060 1059 1060 1060 1060 1060 1060 1060 1063 1062 1061 1060 1060 1060 1060 1059 1059 1059 1060 1060 1059 1060 1059 1059 1059 1059 1057 1056 1056 1055 1053 1053 1052 1053 1053 1051 1051 1051 1050 1050 1050 1049 1049 1049 1049 1049 1049 1049 1049 1049 1049 1049 1049 1048 1047 1047 1047 1047 1047 1047 1047 1047 1047 1047 1046 1045 1044 1043 1042 1042 1040 1042 1042 1043 1043 1043 1042 1040 1042 1040 1040 1040 1040 1040 1040 1040 1040 1040 1040 1039 1038 1038 1037 1037 1037 1037 1037 1037 1037 1036 1036 1036 1036 1037 1037 1037 1036 1035 1035 1034 1034 1032 1031 1031 1031 1031 1029 1029 1028 1028 1028 1028 1028 1028 1026 1026 1028 1025 1025 1025 1025 1025 1025 1025 1024 1024 1024 1024 1023 1023 1023 1023 1023 1022 1022 1020 1021 1022 1022 1021 1021 1021 1021 1021 1021 1020 1020 1020 1019 1020 1019 1019 1019 1019 1016 1016 1016 1016 1016 1016 1016 1016 1016 1016 1016 1015 1013 1013 1013 1010 1013 1012 1010 1010 1010 1010 1010 1010 1008 1009 1009 1010 1009 1007 1009 1007 1007 1007 1006 1007 1006 1007 1005 1005 1004 1007 1007 1007 1007 1005 1007 1007 1007 1006 1005 1005 1003 1003 1001 1001 1000 1002 1003 1003 1003 1004 1004 1004 1004 1004 1005 1003 1003 1003 1003 1000 1000
1164 1163 1164 1164 1162 1163 1162 1162 1163 1159 1160 1159 1159 1156 1155 1155 1155 1155 1155 1155 1155 1155 1155 1155 1155 1155 1155 1155 1155 1155 1155 1155 1155 1154 1154 1154 1153 1153 1153 1150 1154 1155 1157 1155 1154 1154 1154 1155 1156 1154 1153 1153 1153 1154 1152 1152 1152 1152 1152 1150 1149 1149 1148 1149 1145 1145 1144 1144 1144 1143 1144 1143 1144 1144 1144 1144 1144 1144 1143 1143 1141 1143 1141 1142 1140 1140 1139 1139 1138 1136 1136 1136 1135 1136 1134 1135 1135 1132 1132 1132 1132 1129 1131 1131 1131 1132 1135 1137 1137  852  854  851  851  566  566  849  283  849  848  848  848  272  546 1095 1094 1095 1092 1095 1092 1093 1092 1093 1093 1091 1092 1091 1092 1091 1091 1088 1088 1089 1088 1088 1088 1087 1088 1088 1089 1089 1087 1089 1089 1086 1085 1086 1085 1085 1085 1085 1082 1083  812  540  540  540  540  269  269  269  269  269  271  271  272  545  272  275  275  276  551  551  827 1103 1104 1102 1105 1103 1104 1107 1108 1107 1109 1108 1106 1108 1107 1106 1104 1104 1104 1104 1104 1104 1104 1103 1103 1103 1103 1104 1104 1103 1103 1103 1099 1099 1098 1096 1096 1096 1095 1094 1094 1093 1093 1093 1091 1091 1090 1094 1094 1094 1094 1092 1093 1093 1093 1097 1096 1096 1095 1095 1095 1095 1093 1093 1093 1091 1090 1089 1089 1089 1088 1090 1089 1089 1088 1088 1088 1089 1089 1085 1085 1085 1085 1083 1083 1083 1083 1083 1083 1083 1083 1083 1083 1082 1082 1081 1080 1080 1079 1078 1079 1078 1077 1078 1079 1079 1076 1076 1078 1079 1079 1079 1076 1076 1077 1076 1076 1074 1074 1074 1077 1077 1076 1075 1076 1075 1073 1073 1073 1073 1073 1073 1073 1073 1073 1073 1073 1073 1072 1069 1071 1071 1070 1069 1068 1068 1067 1068 1067 1066 1066 1066 1068 1067 1067 1066 1064 1063 1064 1063 1063 1061 1060 1061 1061 1061 1061 1061 1061 1063 1063 1063 1062 1063 1062 1060 1060 1060 1060 1058 1060 1058 1060 1060 1060 1060 1063 1061 1060 1060 1060 1059 1060 1059 1059 1058 1060 1060 1059 1059 1059 1059 1057 1057 1055 1056 1054 1053 1053 1053 1050 1050 1050 1050 1050 1050 1050 1049 1049 1049 1049 1049 1049 1049 1049 1049 1049 1049 1048 1049 1047 1047 1047 1047 1047 1047 1047 1047 1047 1047 1047 1047 1045 1044 1043 1043 1041 1041 1040 1038 1039 1042 1043 1040 1040 1040 1040 1040 1040 1040 1040 1040 1040 1040 1040 1040 1040 1040 1039 1039 1037 1037 1037 1037 1037 1037 1037 1036 1036 1036 1036 1037 1037 1037 1035 1034 1034 1033 1033 1032 1031 1031 1031 1031 1030 1029 1028 1028 1028 1028 1028 1028 1026 1026 1026 1025 1025 1025 1025 1025 1025 1025 1025 1025 1024 1025 1024 1025 1025 1025 1025 1023 1022 1021 1022 1023 1022 1021 1021 1021 1021 1021 1021 1020 1021 1021 1019 1020 1019 1018 1017 1017 1016 1016 1016 1016 1016 1016 1016 1016 1016 1016 1016 1015 1013 1013 1013 1012 1012 1012 1010 1010 1010 1010 1010 1010 1008 1008 1008 1007 1009 1007 1007 1007 1007 1007 1006 1007 1006 1007 1005 1005 1005 1007 1007 1007 1007 1005 1005 1005 1005 1004 1003 1003 1002 1002 1001 1001 1000 1001 1003 1003 1004 1004 1004 1006 1006 1006 1005 1003 1002 1001 1000 1000  998
1164 1164 1164 1164 1164 1164 1162 1162 1162 1159 1159 1158 1159 1158 1155 1155 1157 1156 1155 1155 1155 1155 1155 1155 1155 1155 1155 1155 1155 1155 1155 1155 1155 1154 1154 1154 1154 1154 1153 1151 1154 1155 1156 1154 1154 1154 1155 1155 1156 1154 1153 1153 1153 1153 1153 1153 1154 1152 1153 1150 1149 1149 1149 1148 1145 1144 1144 1145 1144 1143 1143 1143 1143 1143 1144 1143 1144 1144 1143 1143 1142 1142 1141 1141 1140 1139 1139 1139 1137 1136 1136 1136 1135 1136 1136 1136 1136 1134 1134 1131 1131 1129 1130 1130 1129 1129 1131 1133 1135 1129  284  284  851  851  849  849  849  849  848  848  272  547 1095 1093 1093 1093 1091 1092 1091 1092 1091 1091 1091 1091 1094 1090 1091 1091 1090 1089 1088 1087 1087 1087 1087 1088 1088 1088 1089 1089 1089 1088 1088 1084 1085 1085 1085 1085 1085 1082 1082 1082  812  538  540  540  541  541  271  269  269  269  269  270  272  547  276  276  276  552  830 1104 1104 1104 1104 1105 1105 1106 1104 1107 1109 1108 1109 1109 1107 1108 1106 1106 1106 1106 1104 1104 1104 1104 1104 1104 1104 1104 1104 1104 1104 1103 1103 1104 1100 1100 1098 1097 1097 1096 1095 1094 1094 1093 1092 1093 1091 1090 1090 1092 1094 1093 1093 1093 1093 1093 1094 1097 1096 1096 1096 1096 1096 1096 1093 1093 1093 1093 1090 1090 1090 1089 1087 1089 1087 1086 1086 1086 1087 1088 1086 1085 1085 1085 1085 1084 1083 1083 1083 1083 1083 1083 1083 1083 1083 1083 1082 1081 1079 1079 1079 1078 1078 1077 1077 1077 1078 1079 1077 1077 1077 1078 1078 1076 1076 1075 1076 1074 1074 1074 1074 1074 1077 1076 1076 1075 1075 1073 1073 1073 1073 1073 1073 1073 1073 1073 1072 1073 1073 1073 1071 1070 1071 1070 1071 1070 1069 1069 1069 1069 1069 1068 1066 1066 1067 1066 1066 1066 1066 1063 1066 1066 1065 1062 1060 1062 1062 1064 1061 1063 1062 1063 1063 1064 1062 1063 1062 1061 1060 1060 1060 1058 1060 1060 1060 1060 1060 1059 1062 1061 1060 1060 1060 1060 1060 1060 1060 1059 1060 1059 1059 1059 1059 1058 1057 1057 1054 1055 1054 1053 1053 1053 1050 1050 1050 1050 1050 1050 1049 1049 1049 1049 1049 1049 1049 1049 1049 1050 1049 1049 1047 1048 1047 1047 1047 1047 1047 1047 1047 1047 1047 1047 1047 1047 1045 1044 1043 1043 1042 1043 1040 1039 1039 1043 1043 1042 1042 1040 1041 1040 1040 1040 1040 1040 1040 1040 1040 1040 1040 1040 1038 1038 1037 1037 1037 1037 1037 1036 1037 1036 1036 1036 1036 1037 1037 1037 1035 1034 1034 1033 1033 1031 1031 1031 1030 1031 1030 1028 1028 1028 1028 1028 1028 1028 1026 1025 1025 1025 1025 1025 1025 1025 1025 1025 1025 1025 1025 1025 1025 1026 1026 1025 1025 1024 1023 1022 1022 1023 1023 1022 1023 1022 1022 1023 1023 1022 1022 1022 1020 1019 1019 1016 1016 1016 1016 1016 1016 1016 1016 1016 1014 1016 1016 1016 1016 1015 1013 1013 1013 1012 1012 1012 1010 1010 1010 1010 1010 1010 1008 1009 1009 1008 1008 1007 1007 1007 1007 1007 1005 1006 1005 1006 1004 1005 1004 1007 1007 1007 1007 1005 1005 1005 1005 1004 1004 1003 1001 1002 1001 1001 1001 1002 1004 1004 1004 1005 1004 1004 1004 1004 1004 1002 1001 1000 1000  999  998
1164 1165 1165 1166 1164 1164 1163 1162 1162 1159 1159 1158 1157 1155 1156 1156 1156 1156 1155 1155 1155 1155 1155 1155 1155 1155 1155 1155 1155 1155 1155 1155 1154 1154 1154 1154 1153 1153 1152 1151 1154 1155 1156 1155 1155 1154 1155 1156 1156 1154 1153 1153 1153 1153 1151 1152 1151 1151 1149 1149 1149 1149 1148 1148 1146 1145 1145 1145 1145 1143 1143 1142 1143 1143 1143 1143 1143 1144 1143 1143 1141 1141 1140 1141 1139 1139 1139 1139 1139 1137 1136 1138 1136 1136 1136 1136 1136 1133 1131 1130 1129 1126 1126 1123 1122 1119 1123 1116 1112 1120  284  851  851  851  851  849  849  849  849  848  271 1095 1092 1091 1092 1092 1090 1093 1090 1090 1090 1090 1091 1091 1093 1091 1091 1091 1090 1089 1089 1087 1087 1088 1088 1088 1088 1088 1089 1089 1088 1087 1087 1084 1084 1086 1085 1084 1082 1083 1081 1083  812  539  541  542  541  271  271  271  271  269  269  269  276  276  276  276  276 1107 1106 1107 1107 1106 1106 1105 1104 1105 1105 1107 1108 1106 1106 1106 1107 1107 1107 1106 1105 1104 1104 1104 1104 1104 1104 1104 1104 1104 1104 1104 1104 1104 1104 1102 1099 1099 1098 1097 1097 1096 1095 1096 1095 1094 1093 1093 1092 1093 1090 1093 1093 1093 1094 1093 1093 1093 1093 1097 1096 1096 1095 1096 1096 1095 1093 1093 1092 1092 1090 1090 1090 1088 1090 1089 1087 1086 1086 1086 1087 1088 1085 1085 1086 1086 1085 1084 1083 1083 1083 1083 1083 1083 1083 1083 1083 1083 1081 1081 1079 1079 1078 1077 1077 1076 1076 1077 1078 1079 1077 1078 1077 1079 1078 1076 1076 1074 1076 1074 1075 1074 1074 1074 1077 1076 1076 1075 1073 1073 1073 1073 1073 1073 1073 1073 1073 1073 1072 1073 1073 1073 1072 1070 1071 1071 1072 1071 1070 1070 1071 1069 1069 1069 1066 1066 1068 1066 1066 1066 1066 1063 1066 1067 1067 1066 1063 1067 1066 1066 1065 1064 1064 1064 1064 1064 1061 1063 1061 1060 1060 1060 1060 1057 1060 1060 1060 1060 1060 1060 1063 1063 1060 1060 1060 1060 1060 1060 1059 1057 1060 1056 1056 1058 1057 1058 1056 1057 1054 1055 1054 1054 1053 1053 1052 1050 1050 1050 1050 1050 1049 1048 1049 1049 1049 1049 1049 1049 1050 1050 1049 1049 1047 1049 1047 1047 1047 1047 1047 1047 1047 1047 1047 1047 1047 1047 1045 1045 1043 1043 1042 1043 1039 1039 1039 1043 1043 1043 1044 1042 1042 1041 1041 1041 1041 1040 1041 1040 1040 1040 1040 1039 1038 1038 1037 1037 1037 1037 1037 1036 1037 1037 1036 1036 1036 1037 1037 1037 1036 1034 1034 1033 1033 1032 1031 1031 1029 1029 1029 1028 1028 1028 1028 1028 1028 1027 1025 1025 1025 1025 1025 1025 1025 1025 1025 1025 1025 1025 1024 1025 1023 1026 1026 1025 1025 1023 1024 1023 1023 1024 1024 1024 1024 1023 1023 1023 1023 1022 1022 1022 1019 1019 1019 1016 1016 1016 1016 1016 1016 1016 1016 1016 1015 1016 1016 1016 1016 1015 1014 1013 1013 1012 1013 1013 1010 1011 1010 1010 1010 1010 1007 1007 1007 1007 1007 1007 1007 1004 1005 1004 1004 1005 1004 1005 1004 1004 1004 1007 1007 1006 1006 1005 1006 1005 1005 1004 1004 1003 1003 1001 1001 1000 1000 1001 1002 1003 1004 1004 1004 1004 1004 1003 1001 1000 1000 1000 1000  998  998
1163 1165 1165 1166 1164 1164 1163 1163 1163 1160 1155 1157 1155 1155 1155 1155 1155 1155 1155 1155 1155 1155 1155 1155 1155 1155 1155 1154 1154 1154 1153 1153 1153 1152 1153 1154 1153 1153 1151 1150 1154 1155 1154 1154 1155 1154 1155 1155 1155 1154 1153 1153 1154 1153 1153 1152 1153 1152 1151 1150 1149 1149 1147 1147 1146 1146 1145 1145 1144 1143 1143 1143 1143 1142 1142 1141 1142 1143 1143 1142 1140 1141 1139 1140 1140 1140 1139 1139 1139 1139 1138 1140 1136 1140 1139 1138 1139 1140 1130 1129 1128 1122 1123 1119 1111 1108 1109 1108 1105 1104  551  851  851  851  851  849  849  849  849  849  544 1091 1090 1089 1091 1092 1090 1092 1090 1091 1090 1090 1090 1090 1091 1090 1090 1089 1089 1088 1085 1086 1086 1088 1088 1088 1088 1088 1089 1089 1088 1087 1086 1085 1084 1085 1084 1082 1082 1082 1083 1082  811  538  539  541  540  271  271  271  271  269  269  269  276  276  276  276  830 1107 1107 1106 1107 1107 1107 1107 1106 1106 1105 1106 1106 1106 1106 1106 1106 1106 1106 1106 1104 1104 1104 1104 1104 1104 1104 1104 1104 1104 1104 1104 1104 1103 1102 1101 1101 1099 1099 1099 1100 1098 1097 1097 1095 1097 1093 1093 1091 1092 1090 1093 1092 1092 1092 1093 1093 1093 1093 1097 1095 1095 1095 1095 1095 1094 1093 1093 1092 1091 1090 1090 1090 1090 1090 1090 1087 1086 1086 1087 1087 1088 1087 1085 1087 1087 1085 1084 1083 1083 1083 1083 1083 1083 1083 1083 1083 1081 1081 1081 1080 1079 1077 1077 1077 1076 1076 1077 1077 1079 1077 1077 1077 1076 1076 1076 1076 1074 1076 1074 1076 1075 1074 1074 1077 1076 1076 1074 1073 1073 1073 1073 1073 1073 1073 1073 1073 1073 1073 1073 1073 1073 1072 1072 1072 1072 1072 1072 1069 1070 1070 1069 1069 1067 1066 1066 1067 1066 1066 1066 1065 1064 1068 1066 1066 1066 1063 1066 1066 1067 1064 1064 1063 1064 1063 1063 1061 1061 1061 1060 1060 1060 1060 1059 1060 1059 1060 1059 1060 1058 1062 1061 1060 1060 1060 1060 1059 1060 1058 1057 1060 1056 1056 1057 1057 1057 1055 1056 1054 1055 1054 1054 1054 1054 1053 1052 1050 1050 1050 1050 1049 1048 1049 1049 1049 1049 1049 1050 1050 1050 1050 1049 1047 1047 1047 1047 1047 1047 1047 1047 1047 1047 1047 1047 1047 1047 1046 1044 1043 1043 1040 1040 1037 1038 1038 1042 1043 1043 1044 1042 1043 1041 1040 1042 1040 1040 1041 1040 1040 1040 1039 1038 1037 1037 1037 1037 1037 1037 1037 1036 1037 1036 1035 1035 1035 1037 1037 1037 1037 1034 1035 1034 1033 1031 1031 1031 1028 1029 1028 1028 1028 1028 1028 1028 1028 1027 1025 1025 1025 1025 1025 1025 1025 1025 1025 1025 1025 1024 1024 1024 1023 1025 1025 1025 1024 1024 1025 1024 1024 1024 1024 1024 1024 1024 1023 1024 1023 1022 1021 1021 1019 1019 1018 1016 1016 1016 1016 1016 1016 1016 1016 1016 1015 1016 1016 1016 1015 1014 1014 1013 1013 1012 1012 1011 1010 1011 1011 1010 1010 1010 1007 1007 1007 1007 1007 1007 1007 1004 1004 1004 1004 1004 1004 1005 1004 1004 1004 1007 1007 1006 1006 1005 1005 1004 1004 1004 1004 1003 1003 1002 1001 1000 1001 1001 1002 1004 1003 1003 1004 1004 1003 1002 1000  998  998  998  998  998  998
1162 1164 1165 1166 1164 1164 1163 1162 1162 1160 1156 1156 1155 1155 1155 1155 1155 1155 1155 1155 1155 1155 1155 1155 1155 1155 1155 1155 1155 1154 1153 1153 1153 1153 1153 1153 1152 1152 1151 1149 1152 1154 1154 1154 1154 1154 1154 1154 1154 1154 1153 1153 1154 1154 1154 1154 1153 1152 1151 1151 1149 1149 1147 1147 1147 1145 1145 1145 1144 1143 1143 1142 1143 1143 1140 1142 1140 1141 1142 1141 1140 1140 1139 1139 1140 1139 1139 1139 1138 1138 1138 1139 1136 1139 1137 1137 1140 1137 1130 1127 1127 1119 1118 1102 1104 1103 1106 1105 1104 1103 1103  275  851  851  851  851  849  849  849  849  817  816 1089 1090 1091 1093 1090 1092 1091 1090 1090 1090 1090 1090 1091 1089 1088 1090 1090 1088 1088 1088 1087 1088 1088 1088 1088 1089 1089 1089 1089 1085 1085 1084 1088 1084 1084 1082 1082 1084 1082 1083  812  538  540  540  270  271  271  271  271  271  269  276  276  276  276  276 1109 1110 1109 1108 1107 1107 1107 1107 1106 1106 1105 1106 1106 1106 1106 1106 1106 1106 1106 1105 1104 1104 1104 1104 1104 1104 1104 1104 1104 1104 1104 1104 1104 1103 1104 1102 1099 1099 1098 1099 1099 1098 1096 1095 1095 1097 1093 1093 1092 1093 1093 1093 1092 1092 1092 1092 1092 1092 1093 1096 1096 1095 1095 1095 1095 1094 1093 1093 1092 1092 1091 1090 1090 1090 1090 1090 1089 1087 1086 1087 1087 1089 1087 1086 1086 1085 1084 1084 1083 1083 1083 1083 1083 1083 1083 1083 1083 1082 1081 1081 1080 1078 1078 1077 1077 1076 1077 1078 1078 1079 1078 1077 1077 1076 1076 1076 1075 1074 1075 1074 1074 1074 1074 1073 1074 1074 1074 1074 1073 1073 1073 1073 1073 1073 1073 1073 1073 1073 1073 1073 1073 1073 1073 1072 1072 1072 1071 1071 1070 1069 1069 1069 1069 1068 1066 1066 1066 1066 1066 1064 1064 1063 1067 1066 1066 1066 1063 1066 1066 1067 1064 1065 1063 1063 1063 1062 1061 1060 1060 1060 1060 1060 1060 1059 1060 1060 1059 1059 1060 1058 1061 1060 1060 1060 1060 1060 1057 1059 1056 1056 1059 1056 1056 1056 1056 1056 1056 1055 1053 1054 1053 1053 1053 1054 1051 1052 1051 1050 1050 1050 1050 1049 1050 1049 1049 1049 1049 1049 1050 1050 1050 1049 1047 1047 1047 1047 1047 1047 1047 1047 1047 1047 1047 1047 1047 1047 1046 1045 1044 1041 1041 1041 1037 1037 1038 1041 1042 1044 1043 1042 1043 1043 1042 1042 1040 1040 1040 1040 1040 1040 1039 1039 1037 1037 1037 1037 1037 1037 1037 1037 1037 1036 1035 1035 1035 1037 1037 1037 1036 1034 1034 1033 1033 1031 1031 1029 1028 1028 1028 1028 1028 1028 1028 1027 1027 1026 1025 1025 1025 1025 1025 1025 1025 1025 1025 1025 1025 1024 1023 1024 1023 1026 1026 1025 1025 1025 1025 1024 1024 1024 1024 1023 1024 1024 1022 1023 1021 1021 1021 1019 1019 1019 1019 1016 1016 1016 1016 1016 1016 1016 1016 1016 1015 1016 1015 1016 1015 1014 1013 1013 1013 1011 1012 1010 1010 1010 1010 1009 1010 1010 1007 1007 1007 1007 1007 1007 1005 1004 1005 1006 1006 1005 1004 1006 1004 1004 1004 1007 1006 1006 1004 1004 1005 1004 1004 1004 1004 1003 1003 1003 1001 1000 1001  999 1001 1002 1001 1002 1004 1004 1001 1001 1000  998  999  998  998  998  998
1162 1163 1166 1164 1163 1165 1162 1162 1161 1159 1157 1157 1156 1155 1155 1155 1155 1155 1155 1154 1154 1154 1155 1155 1155 1155 1155 1154 1155 1153 1153 1153 1152 1152 1152 1151 1151 1150 1150 1149 1150 1153 1154 1154 1154 1154 1154 1154 1154 1154 1153 1153 1153 1153 1153 1154 1154 1153 1151 1152 1150 1150 1148 1148 1147 1146 1147 1146 1145 1143 1143 1141 1143 1142 1139 1141 1140 1140 1141 1140 1140 1140 1139 1139 1140 1139 1139 1139 1139 1139 1139 1139 1138 1139 1138 1139 1139 1131 1128 1124 1123 1119 1108 1102 1102 1100 1104 1104 1103 1103 1104 1107  276  851  851  851  849  849  849  849  544  816 1089 1089 1090 1091 1091 1092 1090 1091 1090 1089 1089 1089 1088 1088 1088 1088 1088 1088 1087 1088 1088 1088 1088 1086 1085 1089 1089 1088 1088 1085 1085 1084 1085 1083 1082 1082 1082 1083 1082 1083  812  538  539  270  270  270  271  271  271  271  276  276  276  276  276 1107 1108 1108 1107 1107 1107 1107 1107 1107 1106 1106 1106 1106 1106 1106 1105 1106 1104 1105 1104 1104 1104 1104 1104 1104 1104 1104 1104 1104 1104 1104 1104 1104 1102 1102 1102 1102 1101 1101 1099 1099 1101 1099 1098 1096 1096 1096 1093 1093 1092 1092 1092 1092 1092 1092 1092 1092 1092 1092 1092 1096 1094 1095 1094 1094 1094 1094 1093 1093 1093 1093 1092 1093 1093 1090 1090 1090 1090 1089 1086 1086 1086 1087 1087 1085 1084 1084 1084 1084 1083 1083 1083 1083 1083 1083 1083 1083 1082 1082 1081 1081 1079 1078 1077 1077 1077 1077 1077 1077 1077 1078 1077 1076 1077 1076 1077 1076 1076 1074 1074 1074 1074 1073 1072 1071 1074 1074 1074 1074 1073 1073 1073 1073 1073 1073 1073 1073 1073 1073 1073 1073 1072 1072 1071 1070 1070 1071 1070 1070 1070 1069 1069 1069 1069 1069 1068 1066 1067 1066 1066 1064 1063 1062 1066 1063 1063 1063 1062 1066 1066 1067 1064 1065 1064 1065 1063 1063 1062 1061 1062 1060 1060 1060 1060 1060 1060 1060 1060 1059 1060 1058 1061 1060 1059 1060 1060 1060 1057 1059 1056 1057 1060 1056 1056 1056 1057 1056 1055 1055 1053 1054 1053 1053 1054 1054 1053 1052 1052 1050 1050 1050 1049 1049 1050 1049 1049 1049 1050 1050 1050 1050 1050 1049 1047 1047 1047 1047 1047 1046 1047 1047 1047 1047 1047 1047 1047 1047 1047 1045 1044 1041 1040 1040 1037 1037 1037 1040 1041 1042 1041 1040 1042 1041 1040 1042 1040 1040 1040 1040 1040 1040 1039 1038 1037 1037 1037 1037 1037 1037 1037 1037 1037 1036 1035 1035 1036 1037 1037 1037 1035 1034 1034 1034 1033 1031 1031 1028 1028 1028 1028 1028 1028 1028 1028 1028 1028 1028 1026 1025 1025 1027 1025 1025 1025 1025 1025 1025 1025 1024 1024 1024 1023 1027 1026 1026 1025 1025 1025 1024 1024 1024 1024 1022 1023 1022 1021 1021 1021 1019 1019 1019 1019 1018 1018 1016 1016 1016 1016 1016 1016 1016 1016 1016 1015 1016 1016 1016 1014 1013 1012 1012 1013 1011 1010 1009 1010 1010 1010 1009 1009 1009 1007 1007 1007 1007 1007 1007 1007 1006 1007 1007 1006 1005 1005 1005 1004 1004 1004 1006 1006 1005 1004 1004 1004 1004 1003 1004 1004 1003 1003 1001 1001 1001 1001  999  999 1001 1001 1001 1001 1001 1001 1001 1000  998  999 1000  999  998  998
