1107 1111 1111 1107 1111 1111 1111 1111 1111 1111 1111 1111 1111 1111 1111 1111 1111 1114 1111 1111 1111 1111 1111 1111 1111 1111 1111 1111 1111 1111 1111 1114 1114 1114 1111 1114 1114 1114 1114 1114 1114 1114 1118 1118 1114 1114 1114 1114 1114 1118 1114 1114 1114 1118 1118 1118 1122 1118 1122 1122 1122 1122 1122 1122 1118 1118 1118 1118 1122 1122 1122 1122 1122 1122 1125 1125 1122 1122 1122 1122 1122 1118 1118 1122 1122 1122 1122 1122 1122 1122 1118 1118 1118 1118 1118 1118 1118 1118 1114 1114 1114 1114 1114 1114 1114 1114 1114 1114 1114 1114 1114 1114 1114 1114 1114 1114 1114 1111 1111 1111 1111 1107 1107 1107 1107 1107 1107 1107 1104 1104 1107 1107 1107 1104 1104 1104 1104 1104 1104 1104 1104 1104 1104 1104 1104 1100 1100 1100 1104 1104 1104 1104 1104 1104 1104 1104 1104 1100 1100 1100 1100 1100 1097 1097 1097 1097 1097 1097 1097 1097 1097 1097 1097 1097 1097 1097 1097 1093 1093 1093 1093 1093 1093 1093 1093 1093 1093 1093 1093 1093 1093 1093 1090 1090 1090 1090 1090 1086 1086 1083 1086 1086 1086 1086 1083 1083 1083 1083 1079 1079 1079 1079 1079 1079 1083 1083 1083 1079 1083 1079 1083 1079 1079 1079 1079 1079 1079 1079 1079 1079 1079 1079 1079 1079 1079 1076 1076 1076 1073 1073 1073 1073 1073 1073 1073 1069 1069 1069 1069 1069 1069 1069 1069 1069 1069 1069 1069 1069 1066 1066 1066 1066 1066 1066 1066 1066 1066 1066 1066 1066 1066 1066 1066 1066 1066 1066 1063 1063 1063 1063 1063 1063 1063 1063 1063 1063 1063 1066 1063 1063 1063 1063 1063 1060 1060 1060 1060 1056 1056 1056 1056 1056 1060 1056 1056 1056 1056 1056 1056 1056 1056 1056 1056 1056 1056 1056 1053 1053 1053 1050 1050 1050 1050 1050 1050 1047 1047 1050 1050 1050 1050 1047 1047 1047 1047 1047 1047 1047 1047 1047 1047 1047 1047 1047 1047 1047 1047 1047 1047 1047 1047 1047 1047 1047 1047 1047 1044 1044 1044 1044 1044 1044 1040 1040 1040 1040 1040 1040 1040 1040 1037 1040 1037 1037 1037 1037 1034 1034 1034 1034 1034 1034 1034 1034 1034 1034 1034 1034 1034 1034 1034  968  968  968  968  965  965  965  962  959  957  957  957  957  957  957  959  957  957  959  962  962  962  962  962  965  965  962  965  965  968  970  970  968  968  970  970  970  968  968  965    0    0    0    0    0 1004 1004  998  995  993  990  990  990  990  987  987  984  984  984  984  984  987  987    0    0    0    0    0    0    0    0    0    0    0    0    0    0    0    0    0    0    0    0 1016 1013 1016 1016 1016 1016 1016 1016 1016 1013 1013 1013 1013 1013 1013 1010 1010 1010 1010 1007 1010 1007 1007 1007 1007 1007 1007 1007 1007 1007 1007 1004 1007 1004 1004 1004 1004 1004 1004 1004 1004 1004 1004 1001 1001 1001 1001 1001 1001 1001 1001 1001 1001 1001  998  998  995  995  995  995  995  995  995  995  995  995  995  995  998  995  995  995  995  995  995  995  993  993  993  993  993  993  993  993  993  993  993  993  990  993  990  990  990  990  987  987  987  987  987  987  987  987  987  987  987  987  984  984  984  984  984  984  984  984  984  984  984  984  984  984  984  984  984
1111 1111 1111 1111 1111 1111 1111 1111 1111 1111 1111 1111 1111 1111 1111 1111 1111 1111 1111 1111 1107 1107 1111 1111 1111 1111 1111 1111 1111 1111 1111 1111 1114 1114 1111 1114 1114 1114 1114 1114 1114 1114 1118 1118 1114 1114 1114 1114 1114 1118 1114 1114 1114 1114 1118 1118 1118 1122 1122 1122 1122 1122 1122 1122 1122 1118 1118 1118 1122 1122 1122 1122 1122 1125 1125 1125 1122 1122 1122 1122 1122 1118 1118 1122 1122 1122 1122 1122 1118 1122 1118 1118 1118 1118 1118 1118 1118 1118 1118 1114 1114 1114 1114 1114 1114 1114 1114 1114 1114 1114 1114 1114 1114 1114 1114 1114 1111 1111 1111 1111 1111 1111 1107 1107 1107 1107 1107 1107 1104 1104 1107 1107 1104 1104 1104 1104 1104 1104 1104 1104 1104 1104 1104 1104 1104 1100 1100 1100 1104 1104 1104 1104 1104 1104 1104 1104 1104 1104 1100 1100 1100 1100 1100 1097 1097 1097 1097 1097 1097 1097 1097 1093 1097 1097 1097 1097 1093 1093 1093 1093 1093 1093 1093 1093 1093 1093 1093 1093 1093 1093 1090 1090 1090 1090 1090 1090 1086 1086 1086 1083 1083 1086 1086 1083 1083 1083 1083 1083 1083 1079 1079 1079 1079 1079 1083 1083 1083 1079 1079 1079 1079 1079 1079 1079 1079 1079 1079 1079 1079 1079 1079 1079 1079 1079 1079 1076 1076 1076 1073 1073 1073 1073 1073 1073 1073 1069 1069 1069 1069 1069 1069 1069 1069 1069 1069 1069 1069 1069 1069 1069 1066 1066 1066 1066 1066 1066 1066 1066 1066 1066 1066 1066 1066 1066 1066 1066 1063 1063 1063 1063 1063 1063 1063 1063 1063 1063 1063 1066 1063 1063 1063 1063 1063 1060 1060 1060 1060 1060 1056 1056 1056 1056 1056 1056 1056 1056 1056 1056 1056 1056 1056 1056 1056 1056 1056 1056 1056 1053 1053 1053 1050 1050 1050 1050 1047 1047 1047 1047 1047 1047 1047 1047 1047 1047 1047 1047 1047 1047 1047 1047 1047 1047 1047 1047 1047 1047 1047 1047 1047 1047 1047 1047 1047 1044 1044 1044 1044 1044 1040 1044 1044 1040 1040 1037 1037 1037 1040 1040 1040 1040 1040 1040 1037 1037 1037 1037 1034 1034 1034 1034 1034 1034 1034 1034 1034 1034 1034 1034 1034 1034 1034  968  968  968  965  965  965  965  962  962  959  959  957  957  957  959  959  957  959  959  962  962  962  965  965  968  970  968  968  968  968  970  970  970  970  973  973  973  968  968    0    0    0    0    0    0 1004 1001  998  995  993  993  990  990  990  990  987  987  984  984  984  984  987  987    0    0    0    0    0    0    0    0    0    0    0    0    0    0    0    0    0    0    0    0 1013 1016 1013 1016 1016 1016 1016 1016 1016 1013 1013 1013 1013 1013 1013 1013 1010 1010 1010 1007 1010 1007 1007 1007 1007 1007 1007 1007 1007 1007 1007 1004 1007 1004 1004 1004 1004 1004 1004 1004 1004 1004 1004 1001 1001 1001 1001 1001 1001 1001 1001 1001 1001  998  998  995  995  995  995  995  995  995  995  995  995  995  995  995  998  995  995  995  995  995  995  995  995  993  993  993  993  993  993  993  993  993  993  993  993  990  990  990  990  990  990  987  987  987  987  990  987  987  987  987  987  987  984  984  987  984  984  984  984  984  984  984  984  984  984  984  984  984  984
1107 1111 1111 1107 1111 1111 1111 1111 1111 1111 1111 1111 1111 1111 1111 1107 1107 1107 1107 1107 1107 1107 1111 1107 1107 1111 1111 1111 1111 1111 1111 1111 1111 1114 1111 1114 1114 1114 1114 1114 1114 1114 1114 1114 1114 1114 1114 1114 1114 1118 1114 1114 1114 1114 1118 1118 1118 1118 1118 1118 1122 1122 1122 1122 1118 1118 1118 1122 1122 1122 1122 1122 1122 1122 1122 1122 1122 1122 1118 1118 1118 1118 1122 1122 1122 1122 1122 1122 1122 1122 1118 1118 1118 1118 1118 1118 1118 1118 1114 1114 1114 1114 1114 1114 1114 1114 1114 1114 1114 1114 1114 1114 1114 1114 1114 1114 1114 1111 1111 1111 1111 1107 1107 1107 1107 1104 1104 1104 1104 1104 1104 1104 1104 1104 1104 1104 1104 1104 1104 1104 1104 1104 1104 1104 1100 1100 1100 1100 1104 1104 1104 1104 1104 1104 1104 1104 1104 1104 1100 1100 1100 1100 1100 1097 1097 1097 1097 1097 1093 1093 1097 1093 1093 1093 1097 1093 1093 1093 1093 1093 1093 1093 1093 1093 1093 1093 1093 1093 1093 1090 1090 1090 1090 1090 1090 1090 1086 1086 1086 1086 1086 1086 1086 1086 1083 1083 1083 1083 1083 1079 1079 1079 1079 1079 1083 1083 1083 1079 1083 1079 1079 1079 1079 1079 1079 1079 1079 1079 1079 1079 1079 1079 1079 1079 1079 1076 1076 1076 1073 1073 1073 1069 1069 1069 1069 1069 1069 1069 1069 1069 1069 1069 1069 1069 1069 1069 1069 1069 1069 1069 1066 1066 1066 1066 1066 1066 1066 1066 1066 1066 1066 1066 1066 1066 1066 1063 1063 1060 1060 1063 1063 1063 1060 1063 1060 1063 1063 1063 1063 1063 1063 1063 1063 1060 1060 1060 1060 1060 1056 1056 1056 1056 1056 1056 1056 1056 1056 1056 1056 1056 1056 1056 1053 1056 1053 1053 1053 1053 1053 1050 1050 1050 1050 1050 1050 1047 1047 1047 1050 1050 1047 1047 1047 1047 1047 1047 1047 1047 1047 1047 1047 1047 1047 1047 1047 1047 1047 1047 1047 1047 1047 1047 1047 1044 1044 1044 1044 1044 1044 1044 1044 1040 1040 1040 1037 1037 1037 1040 1037 1040 1037 1037 1037 1037 1037 1034 1034 1034 1034 1034 1034 1034 1034 1034 1034 1034 1034 1034 1034 1034 1034  968  968  968  965  965  968  965  965  962  957  957  957  957  957  957  959  959  959  959  962  962  962  962  962  965  965  976  970  970  973  973  973  973  973  973  976  973  970  970    0    0    0    0    0 1001 1004 1001  998  995  995  993  993  990  990  990  987  987  984  987  984  987  987  987    0    0    0    0    0    0    0    0    0    0    0    0    0    0    0    0    0    0    0    0 1013 1016 1016 1016 1016 1016 1016 1016 1016 1013 1013 1013 1013 1013 1013 1013 1010 1010 1010 1010 1007 1007 1007 1007 1007 1007 1007 1007 1007 1007 1007 1004 1007 1004 1004 1004 1004 1004 1004 1004 1004 1004 1004 1004 1001 1001 1001 1001 1001 1001 1001 1001  998  998  998  998  995  995  995  995  995  995  995  995  995  995  995  995  998  995  995  995  995  995  995  995  995  993  993  993  993  990  993  993  990  993  990  990  990  990  990  990  990  987  987  987  987  987  987  990  987  987  987  987  987  987  984  984  984  984  984  984  984  984  984  981  984  981  984  984  984  984  984
1111 1111 1111 1107 1111 1111 1111 1107 1107 1107 1107 1111 1107 1107 1107 1107 1107 1111 1107 1107 1107 1107 1107 1107 1107 1107 1111 1107 1107 1111 1111 1111 1111 1114 1111 1114 1114 1114 1114 1114 1114 1114 1114 1114 1114 1114 1114 1114 1114 1118 1114 1114 1114 1118 1118 1118 1118 1118 1118 1118 1122 1122 1118 1122 1118 1118 1118 1122 1122 1122 1122 1122 1122 1122 1122 1122 1122 1118 1118 1118 1118 1118 1118 1122 1122 1122 1122 1122 1122 1122 1118 1118 1118 1118 1118 1118 1118 1114 1114 1114 1114 1114 1114 1114 1114 1114 1114 1114 1114 1114 1114 1114 1114 1114 1114 1114 1111 1111 1111 1111 1111 1107 1107 1104 1104 1104 1104 1104 1104 1104 1104 1104 1104 1104 1104 1104 1104 1104 1104 1104 1104 1104 1104 1104 1100 1100 1100 1100 1104 1104 1104 1104 1104 1104 1104 1104 1100 1104 1100 1100 1100 1100 1100 1100 1097 1097 1097 1097 1093 1093 1093 1093 1093 1093 1093 1093 1093 1093 1093 1093 1093 1093 1093 1093 1093 1093 1093 1093 1090 1090 1090 1090 1090 1090 1090 1090 1086 1086 1086 1086 1086 1086 1086 1083 1083 1083 1083 1083 1083 1079 1079 1079 1079 1079 1079 1079 1079 1079 1079 1079 1079 1079 1079 1079 1079 1079 1079 1079 1079 1079 1079 1079 1079 1079 1079 1076 1076 1076 1073 1073 1069 1069 1069 1069 1069 1069 1069 1069 1069 1069 1069 1066 1069 1069 1069 1066 1069 1069 1069 1069 1066 1066 1066 1066 1066 1066 1066 1066 1066 1066 1066 1066 1066 1066 1066 1063 1063 1060 1063 1063 1063 1063 1060 1063 1063 1063 1060 1063 1063 1060 1060 1060 1060 1060 1060 1060 1060 1060 1056 1056 1056 1056 1056 1056 1056 1056 1056 1056 1056 1056 1053 1053 1053 1053 1053 1053 1053 1053 1053 1053 1050 1050 1050 1050 1047 1047 1047 1047 1047 1047 1047 1047 1047 1047 1047 1047 1047 1047 1047 1047 1047 1047 1047 1047 1047 1047 1047 1047 1047 1047 1047 1047 1047 1044 1044 1044 1044 1044 1044 1044 1044 1040 1040 1040 1040 1040 1040 1040 1037 1040 1037 1037 1037 1037 1034 1034 1034 1034 1034 1034 1034 1034 1034 1034 1034 1034 1034 1034 1034 1034 1034 1031 1028  968  968  968  968  968  965  965  962  959  959  959  959  959  962  959  959  959  959  962    0    0    0  965  968  978  976  976  976  976  976  976  976  973  976  970  973    0    0    0    0    0 1004 1001 1001  998  995  995  993  993  993  993  993  990  990  990  990  990  987  990  990  990    0    0    0    0    0    0    0    0    0    0    0    0    0    0    0    0    0    0    0    0    0 1013 1016 1013 1016 1016 1016 1016 1016 1013 1013 1013 1013 1013 1013 1013 1010 1010 1010 1007 1007 1007 1007 1007 1007 1007 1007 1007 1007 1007 1007 1004 1004 1004 1004 1004 1004 1004 1004 1004 1004 1004 1004 1001 1001 1001 1001 1001 1001 1001 1001  998  998  998  998  995  995  995  995  995  995  995  995  995  995  995  995  995  998  995  995  995  995  995  995  995  993  993  993  993  993  993  993  993  990  990  990  990  990  990  990  987  990  987  987  987  987  987  987  987  987  987  987  987  987  987  984  984  984  984  984  984  984  984  984  984  984  984  984  984  984  984  984
1111 1111 1111 1107 1107 1111 1111 1107 1107 1107 1107 1107 1107 1111 1107 1107 1107 1111 1107 1107 1107 1107 1107 1104 1107 1104 1107 1107 1107 1111 1111 1111 1111 1111 1111 1114 1114 1111 1114 1114 1114 1114 1114 1114 1114 1114 1111 1114 1114 1114 1114 1114 1114 1114 1118 1118 1118 1118 1118 1118 1118 1118 1118 1118 1118 1118 1118 1122 1122 1122 1122 1122 1122 1122 1122 1122 1122 1122 1118 1118 1118 1118 1118 1122 1122 1122 1122 1122 1118 1118 1118 1118 1118 1118 1118 1118 1118 1114 1114 1114 1114 1114 1114 1114 1114 1114 1114 1114 1114 1114 1114 1114 1114 1114 1114 1114 1114 1111 1111 1111 1111 1107 1107 1107 1107 1104 1104 1104 1104 1104 1104 1104 1104 1104 1104 1104 1104 1104 1104 1104 1104 1104 1104 1100 1100 1100 1100 1100 1104 1104 1104 1104 1104 1104 1104 1104 1104 1104 1100 1100 1100 1100 1100 1100 1097 1097 1097 1093 1093 1093 1093 1093 1093 1093 1093 1093 1093 1093 1093 1093 1093 1093 1093 1093 1093 1093 1093 1093 1090 1090 1090 1090 1090 1090 1090 1090 1086 1086 1086 1086 1086 1086 1086 1083 1083 1083 1083 1083 1083 1079 1079 1079 1079 1079 1083 1083 1079 1083 1083 1083 1083 1079 1079 1079 1079 1079 1079 1079 1079 1079 1079 1079 1079 1079 1079 1076 1076 1076 1073 1073 1073 1069 1069 1069 1069 1069 1069 1069 1069 1069 1069 1069 1069 1069 1069 1066 1069 1069 1069 1069 1066 1069 1066 1066 1066 1066 1066 1066 1066 1066 1066 1066 1066 1066 1066 1063 1063 1060 1060 1063 1063 1063 1060 1060 1060 1060 1060 1063 1060 1060 1060 1060 1060 1060 1060 1060 1060 1060 1056 1056 1056 1056 1056 1056 1056 1056 1056 1056 1056 1056 1053 1053 1053 1053 1053 1053 1053 1053 1053 1053 1050 1050 1050 1050 1047 1047 1047 1047 1047 1047 1047 1047 1047 1047 1047 1047 1047 1047 1047 1047 1047 1047 1047 1044 1044 1047 1047 1047 1047 1047 1047 1047 1047 1044 1044 1044 1044 1044 1044 1044 1040 1040 1040 1040 1040 1040 1040 1040 1040 1040 1037 1037 1037 1034 1034 1034 1034 1034 1034 1034 1034 1034 1034 1034 1034 1034 1034 1034 1034 1031 1031 1031 1031 1025  968  968  968  968  968  965  962  959  959  959  959  959  959  959    0    0    0    0    0    0    0    0    0    0  976  973  976  976  976  973  976  976  976  973    0    0    0    0    0    0  995 1001  998  995  993  993  993  990  990  990  990  990  990  990  990  993  990  990  990    0    0    0    0    0    0    0    0    0    0    0    0    0    0    0    0    0    0    0    0    0    0 1013 1013 1016 1016 1016 1016 1016 1016 1013 1013 1013 1013 1013 1013 1013 1010 1010 1010 1007 1007 1007 1007 1007 1007 1007 1007 1007 1007 1007 1007 1004 1004 1004 1004 1004 1004 1004 1004 1004 1004 1004 1004 1001 1001 1001 1001 1001 1001  998  998  998  998  998  998  998  998  995  995  995  995  995  995  995  995  995  995  995  998  995  995  995  995  995  995  995  993  993  993  993  993  990  993  990  990  990  990  990  990  987  987  987  987  987  987  987  987  987  987  987  987  987  984  987  987  987  984  984  984  984  984  984  984  984  984  981  984  981  981  981  984  981  984
1111 1111 1111 1107 1107 1107 1107 1107 1107 1107 1107 1107 1107 1107 1107 1107 1107 1107 1107 1107 1107 1107 1107 1104 1107 1104 1107 1104 1104 1111 1107 1111 1111 1111 1111 1111 1111 1111 1111 1111 1114 1114 1114 1114 1114 1114 1111 1114 1114 1114 1111 1114 1114 1114 1118 1114 1118 1114 1114 1118 1118 1118 1118 1118 1118 1118 1122 1122 1122 1122 1122 1122 1122 1122 1122 1122 1122 1122 1118 1118 1118 1118 1118 1122 1122 1122 1122 1122 1122 1122 1118 1118 1118 1118 1118 1114 1114 1114 1114 1114 1114 1114 1114 1114 1114 1114 1114 1114 1114 1114 1114 1114 1114 1114 1111 1111 1111 1111 1111 1107 1107 1107 1104 1104 1104 1104 1104 1104 1104 1104 1104 1104 1104 1104 1104 1104 1104 1104 1104 1104 1104 1104 1104 1100 1100 1100 1100 1100 1104 1104 1104 1104 1104 1104 1104 1100 1100 1100 1100 1100 1100 1100 1100 1100 1097 1097 1097 1093 1093 1093 1093 1093 1093 1093 1093 1093 1093 1093 1093 1093 1093 1093 1093 1093 1093 1093 1093 1093 1093 1090 1090 1090 1090 1086 1090 1090 1086 1086 1086 1086 1086 1086 1083 1083 1083 1083 1083 1083 1083 1079 1079 1079 1079 1079 1083 1083 1079 1083 1083 1083 1083 1079 1083 1083 1079 1079 1079 1079 1079 1079 1079 1079 1079 1079 1079 1076 1076 1073 1073 1073 1073 1073 1069 1069 1069 1069 1069 1069 1069 1069 1069 1069 1069 1069 1069 1066 1069 1069 1069 1069 1066 1069 1066 1066 1066 1066 1066 1066 1066 1066 1066 1066 1066 1063 1066 1063 1063 1060 1063 1063 1063 1063 1060 1060 1060 1060 1060 1060 1060 1060 1060 1060 1060 1060 1060 1060 1060 1060 1056 1056 1056 1056 1056 1056 1056 1056 1056 1056 1056 1056 1053 1053 1053 1053 1053 1053 1053 1053 1053 1053 1053 1050 1050 1050 1050 1047 1047 1047 1047 1047 1047 1047 1047 1047 1047 1047 1047 1047 1047 1047 1047 1047 1044 1044 1044 1047 1047 1047 1047 1047 1047 1044 1044 1044 1044 1044 1044 1044 1044 1044 1044 1040 1044 1040 1040 1040 1040 1040 1040 1040 1037 1037 1037 1034 1034 1034 1034 1034 1034 1034 1034 1034 1034 1034 1034 1034 1034 1034 1034 1034 1031 1034 1031 1028  968  968  970  968  968  968  959  965  959  959  959    0    0    0    0    0    0    0    0    0    0    0    0    0    0  976  976  976  976  976  976  978  976  998  998  998  998    0  995  995  995  995  995  993  993  993  993  990  990  993  990  990  990  993  993  993  990  990    0    0    0    0    0    0    0    0    0    0    0    0    0    0    0    0    0    0    0    0    0    0    0    0 1013 1013 1013 1013 1013 1016 1016 1013 1013 1013 1013 1013 1013 1013 1010 1010 1010 1007 1007 1007 1007 1007 1007 1007 1007 1007 1007 1007 1007 1004 1004 1004 1004 1004 1004 1004 1004 1004 1004 1004 1004 1001 1001 1001 1001 1001  998  998  998  998  995  995  998  998  995  995  995  995  995  995  995  995  995  995  995  995  998  998  995  995  995  995  995  993  993  993  993  993  993  990  990  990  990  990  990  990  987  987  987  987  987  987  987  984  984  984  987  987  984  984  984  984  984  984  984  984  984  984  984  984  984  984  984  981  984  981  984  984  984  981  984
1111 1111 1107 1107 1107 1107 1107 1107 1107 1107 1107 1107 1107 1107 1107 1107 1107 1107 1107 1107 1107 1107 1107 1104 1104 1104 1104 1104 1104 1107 1107 1111 1111 1111 1111 1111 1111 1111 1111 1111 1111 1111 1114 1111 1111 1114 1111 1111 1111 1111 1111 1111 1111 1114 1114 1114 1114 1114 1114 1114 1118 1118 1118 1118 1118 1122 1122 1122 1122 1122 1122 1122 1122 1122 1122 1122 1122 1118 1118 1118 1118 1118 1118 1122 1122 1122 1118 1118 1118 1118 1118 1118 1118 1118 1118 1114 1114 1114 1114 1114 1114 1114 1114 1114 1114 1114 1114 1114 1114 1114 1114 1114 1114 1114 1111 1111 1111 1111 1111 1107 1107 1107 1104 1104 1104 1104 1104 1104 1104 1104 1104 1104 1104 1104 1104 1104 1104 1104 1104 1104 1104 1104 1104 1100 1100 1100 1100 1100 1104 1104 1104 1104 1104 1104 1104 1100 1100 1100 1100 1100 1100 1100 1100 1100 1100 1097 1097 1093 1093 1093 1093 1093 1093 1093 1093 1093 1093 1093 1093 1093 1093 1093 1093 1093 1093 1093 1093 1093 1093 1090 1090 1090 1090 1090 1090 1090 1090 1086 1086 1083 1086 1083 1083 1083 1083 1083 1083 1083 1083 1079 1079 1079 1079 1079 1083 1083 1079 1083 1083 1083 1083 1079 1079 1079 1079 1079 1079 1079 1079 1079 1079 1079 1079 1079 1076 1076 1076 1073 1073 1073 1073 1073 1073 1069 1069 1069 1069 1069 1069 1069 1069 1066 1069 1069 1069 1066 1069 1069 1069 1069 1066 1066 1066 1066 1066 1066 1063 1066 1063 1063 1063 1063 1063 1063 1066 1063 1063 1063 1063 1063 1063 1063 1060 1060 1060 1060 1060 1060 1060 1060 1060 1060 1060 1060 1060 1060 1060 1060 1056 1056 1056 1056 1056 1056 1056 1056 1056 1056 1056 1056 1053 1053 1053 1053 1053 1050 1053 1053 1050 1050 1050 1050 1050 1050 1050 1050 1050 1050 1050 1050 1050 1050 1047 1047 1047 1047 1047 1047 1047 1047 1047 1047 1047 1047 1044 1047 1047 1047 1047 1047 1047 1044 1044 1044 1044 1044 1044 1044 1040 1040 1040 1040 1040 1040 1040 1040 1040 1040 1040 1040 1037 1037 1037 1034 1034 1034 1034 1034 1034 1034 1034 1034 1034 1034 1034 1034 1034 1034 1034 1031 1031 1031 1031 1031 1031  968  968  968    0  968    0    0    0    0    0    0    0    0    0    0    0    0    0    0    0    0    0    0    0    0  976  978  976  978  981  998  998  998  998  998  998 1001 1004  995  995  995  995  995  993  993  993  993  990  990  990  990  990  990  990  990  990    0    0    0    0    0    0    0    0    0    0    0    0    0    0    0    0    0    0    0    0    0    0    0    0    0 1013 1013 1013 1013 1013 1016 1016 1013 1013 1013 1013 1013 1013 1010 1010 1010 1010 1007 1007 1007 1007 1007 1007 1007 1007 1007 1007 1007 1004 1004 1004 1004 1004 1004 1004 1004 1004 1004 1004 1004 1004 1001 1004 1004 1001 1001 1001 1001  998  998  995  995  998  998  998  995  995  995  995  995  995  995  995  995  995  995  998  995  995  995  995  993  993  993  993  990  990  990  990  990  990  990  990  990  990  990  987  987  987  987  987  987  987  987  984  984  984  987  984  984  984  984  984  984  984  984  984  984  984  984  984  984  984  984  984  984  984  984  984  984  984
1111 1111 1111 1107 1107 1107 1111 1107 1107 1107 1107 1107 1107 1107 1107 1107 1107 1107 1107 1111 1107 1107 1107 1104 1104 1104 1104 1107 1107 1107 1107 1111 1111 1111 1111 1111 1111 1111 1111 1111 1111 1111 1111 1111 1111 1111 1111 1111 1111 1111 1111 1111 1111 1114 1114 1114 1114 1114 1114 1114 1118 1118 1118 1118 1118 1122 1122 1122 1122 1118 1122 1122 1122 1122 1122 1122 1118 1118 1118 1118 1118 1118 1114 1118 1118 1118 1118 1118 1118 1118 1118 1118 1118 1118 1118 1114 1114 1114 1114 1114 1114 1114 1114 1114 1114 1114 1114 1114 1114 1114 1114 1114 1111 1111 1111 1107 1107 1107 1107 1107 1107 1104 1104 1104 1104 1104 1104 1104 1104 1104 1107 1104 1104 1104 1104 1104 1104 1104 1104 1104 1104 1104 1104 1100 1100 1100 1100 1100 1104 1104 1104 1104 1104 1104 1100 1100 1100 1100 1100 1100 1100 1100 1100 1100 1100 1097 1093 1093 1093 1093 1093 1093 1093 1093 1093 1093 1093 1093 1090 1093 1090 1090 1090 1090 1090 1093 1093 1093 1093 1090 1090 1090 1090 1090 1090 1090 1090 1086 1086 1086 1083 1083 1083 1083 1083 1079 1079 1079 1079 1079 1079 1079 1079 1076 1083 1083 1079 1083 1083 1083 1083 1083 1083 1083 1083 1079 1079 1079 1079 1079 1079 1079 1079 1076 1076 1076 1076 1073 1073 1073 1073 1073 1073 1069 1073 1069 1069 1069 1069 1069 1069 1069 1069 1066 1066 1066 1066 1066 1069 1066 1066 1066 1066 1066 1066 1066 1063 1063 1063 1063 1063 1063 1063 1063 1063 1063 1063 1060 1060 1063 1063 1063 1060 1063 1063 1060 1060 1060 1060 1060 1060 1060 1060 1060 1060 1060 1060 1056 1056 1056 1056 1056 1056 1056 1056 1056 1056 1056 1056 1056 1053 1053 1053 1053 1053 1050 1050 1053 1050 1050 1050 1050 1050 1050 1050 1050 1050 1050 1050 1050 1050 1050 1050 1047 1047 1047 1047 1047 1047 1047 1047 1047 1047 1047 1044 1047 1047 1047 1047 1047 1047 1044 1044 1044 1044 1044 1044 1044 1040 1044 1040 1040 1040 1040 1040 1040 1040 1040 1040 1040 1037 1037 1037 1034 1034 1034 1034 1034 1034 1034 1034 1034 1034 1034 1034 1034 1034 1034 1031 1031 1031 1031 1031 1028 1031 1028  968    0    0    0    0    0    0    0    0    0    0    0    0    0    0    0    0    0    0    0    0    0    0    0    0    0  976  976  976  998  998  998  998 1001 1001 1001  998  995  993  995  993  995  993  995  993  993  993  990  990    0    0    0    0    0    0    0    0    0    0    0    0    0    0    0    0    0    0    0    0    0    0    0    0    0    0    0    0    0    0    0 1013 1013 1013 1013 1013 1013 1013 1013 1013 1013 1013 1013 1013 1010 1010 1007 1007 1007 1007 1007 1007 1007 1007 1007 1007 1007 1007 1007 1004 1004 1004 1004 1004 1004 1004 1004 1004 1004 1004 1004 1004 1004 1004 1004 1004 1001 1001 1001  998  998  995  995  995  995  995  995  995  995  995  995  995  995  995  995  995  993  998  995  995  995  995  993  993  993  993  990  990  990  993  993  993  990  990  990  990  990  990  987  987  987  987  987  987  987  987  987  987  987  987  987  984  984  984  984  984  984  984  984  984  984  984  984  984  984  984  984  984  981  981  981  981
1111 1111 1111 1107 1107 1107 1107 1107 1107 1107 1107 1107 1107 1104 1104 1107 1104 1107 1107 1111 1111 1107 1107 1104 1107 1104 1107 1107 1107 1107 1107 1107 1107 1111 1111 1111 1111 1111 1111 1111 1111 1111 1111 1111 1111 1111 1111 1111 1111 1111 1111 1111 1111 1114 1114 1114 1114 1114 1114 1114 1114 1114 1114 1118 1118 1118 1122 1122 1122 1118 1122 1122 1122 1122 1122 1122 1118 1118 1118 1118 1114 1114 1114 1118 1118 1118 1118 1118 1118 1118 1118 1118 1118 1118 1118 1114 1114 1114 1114 1114 1114 1114 1114 1114 1114 1114 1114 1114 1114 1114 1114 1114 1111 1111 1111 1107 1107 1107 1107 1107 1104 1104 1104 1104 1104 1104 1104 1104 1104 1104 1107 1104 1104 1104 1104 1104 1104 1104 1104 1104 1104 1104 1104 1100 1100 1100 1100 1100 1104 1104 1104 1104 1104 1104 1104 1100 1100 1104 1100 1100 1104 1104 1100 1100 1100 1097 1093 1093 1093 1093 1093 1093 1093 1093 1093 1093 1093 1090 1090 1090 1090 1090 1090 1090 1090 1090 1090 1090 1090 1090 1090 1090 1090 1090 1090 1090 1090 1086 1090 1086 1086 1083 1079 1079 1079 1079 1079 1079 1079 1079 1079 1079 1079 1076 1083 1079 1079 1083 1083 1083 1083 1083 1083 1083 1079 1079 1079 1079 1079 1079 1079 1079 1076 1076 1076 1076 1076 1073 1073 1073 1073 1073 1069 1069 1069 1069 1069 1069 1069 1069 1069 1069 1069 1066 1066 1066 1066 1066 1066 1066 1066 1066 1066 1066 1066 1063 1063 1063 1063 1063 1063 1063 1063 1063 1063 1060 1060 1060 1060 1060 1060 1063 1060 1063 1063 1060 1060 1060 1060 1060 1060 1060 1060 1060 1060 1060 1060 1060 1056 1056 1056 1056 1056 1056 1056 1056 1056 1056 1056 1056 1053 1053 1053 1053 1053 1050 1050 1053 1050 1050 1050 1050 1050 1050 1047 1047 1050 1050 1050 1050 1050 1047 1047 1047 1047 1047 1047 1047 1047 1047 1047 1047 1047 1047 1044 1047 1047 1047 1047 1047 1044 1044 1044 1044 1044 1044 1044 1044 1044 1040 1040 1040 1040 1040 1040 1040 1040 1040 1040 1040 1037 1037 1037 1034 1034 1034 1034 1034 1034 1034 1034 1034 1034 1034 1034 1034 1034 1034 1031 1031 1031 1031 1031 1028 1028 1028 1031    0    0    0    0    0    0    0    0    0    0    0    0    0    0    0    0    0    0    0    0    0    0    0    0    0    0  995  998  998  998  998  998  998 1001  998  995  995  993  993  993  995  995  998  993  993    0    0    0    0    0    0    0    0    0    0    0    0    0    0    0    0    0  978  981  981    0    0    0    0    0    0    0    0    0    0    0    0    0    0    0 1013 1013 1013 1013 1013 1013 1013 1013 1013 1013 1013 1013 1013 1010 1010 1010 1007 1007 1007 1007 1007 1007 1007 1007 1007 1007 1007 1004 1004 1004 1004 1004 1004 1004 1004 1004 1004 1004 1004 1004 1004 1001 1001 1001 1001 1001 1001  998  998  995  995  995  995  995  995  995  995  995  995  995  995  995  995  995  995  998  995  995  995  995  993  993  993  993  990  990  990  990  990  990  990  990  990  990  990  990  987  987  987  987  987  987  987  987  987  987  987  984  984  984  984  984  984  984  984  984  984  984  984  984  984  984  984  984  984  984  981  981  981  981
1111 1111 1107 1107 1107 1107 1107 1107 1107 1107 1107 1107 1107 1104 1104 1107 1107 1111 1111 1111 1107 1107 1107 1104 1104 1104 1104 1104 1107 1107 1107 1107 1107 1111 1107 1111 1107 1107 1107 1111 1111 1111 1111 1111 1111 1111 1111 1111 1111 1111 1111 1111 1111 1111 1111 1111 1114 1114 1114 1114 1114 1114 1114 1114 1118 1118 1118 1122 1118 1118 1118 1122 1118 1122 1118 1118 1118 1118 1118 1114 1114 1114 1114 1118 1118 1118 1118 1118 1118 1118 1118 1118 1118 1118 1118 1118 1114 1114 1114 1114 1114 1114 1114 1114 1114 1114 1114 1114 1114 1114 1114 1114 1111 1111 1111 1107 1107 1107 1107 1107 1104 1104 1104 1104 1104 1104 1104 1104 1104 1104 1107 1107 1104 1104 1104 1104 1104 1104 1104 1104 1104 1104 1104 1100 1100 1100 1100 1100 1104 1104 1104 1104 1104 1104 1104 1100 1100 1100 1100 1100 1100 1100 1100 1100 1100 1097 1093 1093 1093 1093 1093 1093 1093 1093 1093 1093 1093 1090 1090 1090 1090 1090 1090 1090 1090 1090 1090 1090 1090 1090 1090 1090 1090 1090 1090 1090 1090 1086 1086 1083 1083 1083 1079 1079 1083 1079 1079 1079 1079 1079 1079 1079 1079 1076 1079 1079 1079 1079 1083 1083 1083 1083 1083 1083 1079 1079 1079 1079 1076 1079 1076 1076 1076 1076 1076 1076 1073 1073 1069 1069 1069 1069 1069 1069 1069 1069 1069 1069 1069 1069 1069 1069 1066 1066 1066 1066 1066 1066 1066 1066 1066 1066 1066 1066 1066 1063 1063 1063 1063 1063 1063 1063 1063 1063 1063 1060 1060 1060 1060 1060 1060 1060 1060 1060 1060 1060 1060 1060 1060 1060 1060 1060 1060 1060 1060 1060 1060 1060 1056 1056 1056 1056 1056 1056 1056 1056 1056 1056 1056 1056 1056 1053 1053 1050 1053 1050 1050 1050 1050 1050 1050 1050 1050 1050 1050 1050 1050 1050 1050 1050 1050 1050 1050 1050 1047 1047 1047 1047 1047 1047 1047 1047 1047 1047 1044 1047 1047 1047 1047 1047 1044 1044 1044 1044 1044 1044 1044 1044 1044 1044 1044 1040 1040 1040 1040 1040 1040 1040 1040 1037 1037 1037 1037 1034 1034 1034 1034 1034 1034 1034 1034 1034 1034 1034 1034 1034 1034 1031 1031 1031 1031 1031 1031 1031 1031 1028 1031    0    0    0    0    0    0    0    0    0    0    0    0    0    0    0    0    0    0    0    0    0    0    0    0    0    0    0  995  995  998  998  998  998 1001  998  995  993  993  993  993  993  993  993    0    0    0    0    0    0    0    0    0    0    0    0    0    0    0    0    0  978  978  976  978  981  981    0    0    0    0    0    0    0    0    0    0    0    0    0    0 1013 1013 1013 1013 1013 1013 1013 1013 1013 1013 1013 1013 1013 1010 1010 1007 1007 1007 1007 1007 1007 1007 1007 1004 1004 1007 1004 1004 1004 1004 1004 1004 1004 1004 1004 1004 1004 1004 1004 1004 1001 1001 1001 1001 1001  998  998  995  995  995  995  995  995  995  995  995  995  995  995  995  995  995  995  995  993  995  995  995  995  993  993  993  993  990  990  990  990  993  993  993  990  990  990  990  990  990  987  990  990  987  987  987  987  984  987  984  987  984  984  984  984  984  984  984  984  984  984  984  984  984  984  984  984  984  984  984  981  981  981  981
1107 1107 1107 1107 1107 1107 1107 1107 1107 1107 1104 1107 1104 1104 1104 1104 1104 1111 1111 1111 1107 1107 1107 1107 1104 1104 1104 1104 1107 1104 1107 1107 1107 1107 1107 1107 1107 1107 1107 1107 1111 1111 1111 1111 1111 1111 1111 1111 1111 1111 1111 1111 1111 1111 1111 1111 1111 1111 1114 1114 1114 1114 1114 1114 1118 1118 1122 1122 1118 1118 1122 1122 1122 1122 1122 1122 1118 1118 1118 1118 1114 1114 1114 1118 1118 1118 1118 1118 1118 1118 1118 1118 1118 1118 1118 1118 1114 1114 1114 1114 1114 1114 1114 1114 1114 1114 1114 1114 1114 1114 1114 1111 1111 1111 1107 1107 1107 1107 1107 1107 1104 1104 1104 1104 1104 1104 1104 1104 1104 1104 1107 1104 1104 1104 1104 1104 1104 1104 1104 1104 1104 1104 1104 1100 1100 1100 1100 1100 1104 1104 1100 1104 1104 1100 1100 1100 1100 1100 1100 1100 1100 1100 1100 1100 1100 1097 1097 1093 1093 1093 1093 1093 1093 1093 1093 1093 1090 1090 1090 1090 1090 1090 1090 1090 1090 1090 1090 1090 1090 1086 1086 1090 1090 1090 1090 1090 1086 1086 1083 1083 1083 1079 1079 1079 1083 1079 1079 1079 1079 1079 1079 1079 1079 1076 1079 1079 1079 1079 1079 1079 1083 1079 1079 1079 1079 1079 1079 1076 1076 1076 1076 1076 1076 1076 1076 1076 1073 1073 1069 1069 1069 1069 1069 1069 1069 1069 1069 1069 1069 1069 1069 1069 1069 1066 1066 1066 1066 1066 1066 1066 1066 1066 1066 1066 1066 1063 1063 1063 1063 1063 1063 1063 1063 1063 1063 1063 1060 1060 1060 1060 1060 1060 1060 1060 1060 1060 1060 1060 1060 1060 1060 1060 1060 1060 1060 1060 1060 1060 1056 1056 1056 1056 1056 1056 1056 1056 1056 1056 1056 1056 1056 1053 1053 1050 1050 1050 1050 1050 1050 1050 1050 1050 1047 1050 1050 1050 1050 1050 1050 1050 1050 1050 1050 1047 1047 1047 1047 1047 1047 1047 1047 1047 1044 1044 1044 1047 1047 1047 1047 1047 1047 1044 1047 1044 1044 1044 1044 1044 1044 1044 1044 1040 1040 1040 1040 1040 1040 1040 1040 1037 1037 1037 1037 1034 1034 1034 1034 1034 1034 1034 1034 1034 1034 1034 1034 1034 1031 1031 1031 1031 1031 1031 1031 1031 1031 1031 1031 1034    0    0    0    0    0    0    0    0    0    0    0    0    0    0    0    0    0    0    0    0    0    0    0    0    0    0  995  995  998  995  998  998 1001  998  995  995  993  993  993  993  993  993    0    0    0    0    0    0    0    0    0    0    0    0    0    0  978  978  978  978  978  978  981  981  981  981    0    0    0    0    0    0    0    0    0    0    0    0    0 1013 1013 1013 1010 1013 1013 1013 1013 1013 1013 1013 1013 1013 1010 1010 1007 1007 1007 1007 1007 1007 1007 1007 1004 1004 1004 1004 1004 1004 1004 1004 1004 1004 1004 1004 1004 1004 1004 1004 1004 1001 1001 1001  998 1001  998  995  995  995  995  995  995  995  995  995  995  995  995  995  995  995  993  995  993  993  995  995  995  995  993  993  993  993  993  990  990  990  993  993  993  990  990  990  990  990  990  990  990  990  990  987  987  987  984  987  984  984  984  984  984  984  984  984  984  984  984  984  984  984  984  984  984  984  984  984  984  984  981  981  981
1107 1107 1107 1107 1107 1107 1107 1107 1107 1107 1104 1104 1104 1104 1104 1104 1104 1107 1107 1107 1107 1107 1107 1107 1104 1104 1104 1104 1107 1104 1107 1107 1107 1107 1107 1107 1107 1107 1107 1107 1107 1107 1111 1111 1111 1111 1107 1111 1107 1107 1107 1111 1111 1111 1111 1111 1111 1114 1114 1114 1114 1114 1114 1114 1118 1118 1118 1118 1118 1118 1122 1122 1122 1122 1118 1122 1118 1118 1118 1118 1114 1114 1114 1118 1118 1118 1118 1118 1118 1118 1118 1118 1118 1118 1118 1114 1114 1114 1114 1114 1114 1114 1114 1114 1114 1114 1114 1114 1114 1114 1114 1111 1111 1111 1107 1107 1107 1107 1107 1104 1104 1104 1104 1104 1104 1104 1104 1104 1107 1104 1107 1107 1104 1104 1104 1104 1104 1104 1104 1104 1104 1100 1100 1100 1100 1100 1100 1100 1104 1104 1100 1104 1104 1104 1104 1104 1100 1104 1100 1100 1104 1100 1100 1100 1100 1097 1097 1093 1093 1093 1093 1093 1093 1093 1093 1093 1093 1090 1090 1090 1090 1090 1090 1090 1090 1090 1090 1090 1090 1086 1086 1090 1090 1090 1090 1090 1090 1086 1086 1083 1083 1083 1079 1079 1083 1079 1079 1079 1079 1079 1079 1079 1079 1076 1079 1079 1079 1079 1079 1079 1079 1079 1079 1079 1079 1079 1076 1076 1076 1076 1073 1076 1076 1073 1073 1073 1073 1069 1069 1069 1069 1069 1069 1069 1069 1069 1069 1069 1069 1069 1069 1069 1069 1069 1066 1066 1066 1069 1066 1066 1066 1066 1066 1066 1066 1063 1063 1063 1063 1063 1063 1063 1063 1063 1063 1063 1060 1060 1056 1060 1060 1060 1060 1060 1060 1060 1060 1060 1060 1060 1060 1060 1060 1060 1060 1060 1060 1056 1056 1056 1056 1056 1053 1056 1056 1056 1056 1056 1056 1056 1056 1053 1053 1050 1050 1050 1050 1050 1047 1047 1047 1047 1047 1047 1047 1047 1050 1050 1050 1050 1050 1050 1047 1047 1047 1047 1047 1047 1047 1044 1044 1044 1044 1044 1044 1047 1047 1047 1047 1044 1044 1044 1044 1044 1044 1044 1044 1044 1044 1040 1040 1040 1040 1040 1037 1040 1040 1040 1037 1037 1037 1037 1037 1034 1037 1034 1034 1034 1034 1034 1034 1034 1034 1034 1034 1031 1031 1031 1031 1031 1031 1031 1034 1034 1034 1034 1034 1034 1037    0    0    0    0    0    0    0    0    0    0    0    0    0    0    0    0    0    0    0    0    0    0    0    0  995  995  995  995  995  995  998  998  998  995  993  993  990  990  993  993  993    0    0    0    0    0    0    0    0    0    0    0    0  981  984  978  978  978  978  978  978  978  978  981  981  978    0    0    0    0    0    0    0    0    0    0    0    0 1013 1013 1013 1013 1013 1013 1013 1013 1013 1013 1013 1010 1010 1010 1007 1007 1007 1007 1007 1007 1007 1007 1007 1004 1004 1004 1004 1004 1004 1004 1004 1004 1004 1004 1004 1004 1004 1001 1001 1001 1001  998  998  998  998  998  995  995  995  995  995  995  995  995  995  995  995  995  993  993  993  993  993  993  993  995  995  995  995  993  993  993  993  990  990  990  990  990  990  990  990  990  990  990  990  990  987  987  990  987  987  987  987  987  987  984  987  984  984  984  984  984  984  984  984  984  984  984  984  984  984  984  984  984  984  984  981  984  981  981
1107 1107 1107 1107 1107 1111 1107 1107 1107 1107 1104 1104 1104 1104 1104 1104 1104 1107 1107 1107 1107 1107 1107 1104 1104 1104 1104 1104 1107 1104 1104 1104 1107 1104 1104 1104 1104 1107 1104 1107 1107 1107 1111 1111 1111 1111 1111 1107 1107 1107 1107 1107 1111 1111 1107 1111 1111 1111 1111 1111 1114 1114 1114 1118 1118 1118 1122 1122 1122 1122 1122 1122 1122 1122 1118 1118 1118 1118 1118 1118 1114 1114 1114 1118 1118 1118 1118 1118 1118 1118 1118 1118 1118 1118 1118 1114 1114 1114 1114 1114 1114 1114 1114 1114 1118 1114 1114 1114 1114 1114 1114 1111 1111 1111 1107 1107 1107 1107 1107 1104 1104 1104 1104 1104 1104 1104 1104 1104 1104 1104 1107 1107 1104 1104 1104 1104 1104 1104 1104 1104 1104 1104 1100 1100 1100 1100 1100 1100 1104 1104 1104 1104 1104 1100 1100 1100 1100 1100 1100 1100 1100 1100 1100 1100 1100 1097 1097 1093 1093 1093 1093 1093 1093 1093 1093 1093 1093 1093 1090 1090 1090 1090 1090 1090 1090 1090 1090 1090 1086 1090 1090 1086 1086 1086 1090 1090 1090 1086 1086 1083 1079 1079 1079 1079 1079 1079 1079 1079 1079 1079 1079 1079 1076 1076 1079 1079 1079 1079 1079 1079 1079 1079 1079 1079 1079 1079 1076 1076 1076 1076 1073 1076 1073 1073 1073 1073 1073 1069 1069 1069 1069 1069 1069 1069 1069 1069 1069 1069 1069 1069 1069 1069 1066 1066 1066 1066 1066 1066 1066 1066 1066 1066 1066 1066 1066 1063 1060 1063 1063 1063 1063 1063 1063 1063 1063 1063 1060 1060 1056 1060 1060 1060 1060 1060 1060 1060 1060 1060 1060 1060 1060 1060 1060 1060 1060 1060 1060 1060 1056 1056 1056 1056 1053 1056 1056 1056 1056 1056 1056 1056 1056 1053 1053 1050 1050 1050 1050 1050 1047 1047 1047 1047 1047 1047 1047 1050 1050 1050 1050 1053 1053 1050 1050 1047 1047 1047 1047 1047 1047 1047 1047 1047 1044 1044 1044 1047 1047 1047 1047 1044 1044 1044 1044 1044 1044 1044 1044 1044 1044 1040 1040 1040 1040 1037 1037 1040 1040 1037 1037 1037 1037 1037 1037 1034 1034 1034 1034 1034 1034 1034 1034 1034 1034 1034 1034 1034 1031 1031 1031 1031 1031 1034 1034 1034 1034 1034 1037 1040 1040    0    0    0    0    0    0    0    0    0    0    0    0    0  990  990  990  990    0    0    0    0    0    0    0    0  995  993  993  995  993  995  995  993  993  993  990  987  990  993  990  993    0    0    0    0    0    0    0    0    0    0  984  984  981  984  981  978  978  978  978  978  978  978  978  978  976  978    0    0    0    0    0    0    0    0    0    0    0 1013 1013 1013 1013 1013 1013 1016 1013 1013 1013 1010 1010 1010 1007 1007 1007 1007 1007 1007 1007 1007 1007 1004 1004 1004 1004 1004 1004 1004 1004 1004 1004 1004 1004 1004 1004 1004 1001 1004 1001 1001  998 1001  998 1001  998  998  995  995  995  995  995  995  995  995  995  995  995  993  993  993  993  993  993  993  995  995  995  995  993  993  993  993  993  993  990  990  990  990  990  990  990  990  990  990  990  990  990  990  987  987  987  987  987  987  987  984  984  984  984  984  984  984  984  984  984  984  984  984  984  984  984  984  984  984  984  984  984  984  981
1107 1107 1107 1107 1107 1107 1107 1107 1107 1107 1107 1104 1104 1104 1104 1104 1104 1107 1107 1107 1107 1107 1107 1104 1104 1104 1104 1104 1104 1104 1104 1104 1104 1104 1104 1104 1104 1104 1104 1107 1107 1107 1107 1107 1107 1107 1107 1107 1104 1107 1107 1107 1111 1107 1107 1111 1111 1111 1111 1111 1114 1114 1114 1118 1118 1118 1122 1122 1122 1122 1122 1122 1122 1122 1118 1118 1118 1118 1118 1118 1114 1114 1114 1118 1118 1118 1118 1118 1118 1118 1118 1118 1118 1118 1118 1118 1114 1118 1118 1118 1114 1114 1114 1114 1118 1114 1114 1114 1114 1114 1114 1111 1111 1111 1107 1107 1107 1107 1107 1104 1104 1104 1104 1104 1104 1104 1104 1104 1107 1104 1104 1104 1104 1104 1104 1104 1104 1104 1104 1104 1104 1100 1100 1100 1100 1100 1100 1100 1104 1104 1104 1104 1104 1100 1104 1104 1104 1100 1100 1100 1100 1100 1100 1100 1100 1097 1097 1093 1093 1093 1093 1093 1093 1093 1093 1093 1093 1093 1090 1090 1090 1090 1090 1090 1090 1090 1090 1090 1090 1090 1090 1090 1090 1086 1090 1090 1090 1086 1086 1086 1083 1083 1079 1079 1079 1083 1079 1079 1079 1079 1079 1079 1079 1076 1079 1079 1079 1079 1079 1079 1079 1079 1079 1079 1079 1079 1076 1076 1076 1076 1073 1073 1073 1073 1073 1073 1073 1069 1069 1069 1069 1069 1069 1069 1069 1069 1069 1069 1069 1069 1069 1066 1066 1066 1066 1066 1066 1066 1066 1066 1066 1066 1066 1066 1063 1063 1060 1060 1063 1063 1063 1063 1063 1063 1063 1063 1060 1060 1056 1060 1060 1063 1060 1060 1060 1060 1060 1060 1060 1056 1060 1056 1056 1060 1060 1056 1056 1060 1056 1056 1056 1056 1056 1056 1056 1056 1056 1056 1056 1056 1056 1053 1053 1050 1050 1050 1050 1047 1047 1047 1047 1047 1047 1047 1050 1050 1050 1050 1050 1053 1053 1050 1050 1047 1047 1047 1047 1047 1047 1047 1047 1047 1044 1044 1044 1047 1047 1047 1047 1044 1044 1044 1044 1044 1044 1044 1044 1044 1044 1040 1040 1040 1040 1037 1037 1037 1037 1037 1037 1037 1037 1034 1037 1034 1034 1034 1034 1034 1034 1034 1034 1034 1034 1034 1034 1034 1031 1034 1031 1031 1031 1034 1034 1034 1034 1034 1037 1044 1047 1040    0    0    0    0    0    0    0    0    0    0    0  990  990  990  990  993  990    0    0    0    0    0    0    0  990  990  990  993  990  990  990  990  987  984  987  987  990  990  990  990  981    0    0  981  981  981  981    0  981  984  984  984  984  984  984  981  981  981  978  978  978  978  978  978  978  978    0    0    0    0    0    0    0    0    0    0    0 1013 1013 1013 1013 1013 1013 1013 1013 1013 1010 1010 1007 1010 1007 1007 1007 1007 1007 1007 1007 1007 1007 1004 1004 1004 1004 1004 1004 1004 1004 1004 1004 1004 1004 1004 1004 1004 1001 1001 1001 1001  998 1001  998 1001  998  998  995  995  995  995  995  995  995  995  995  995  993  993  993  993  993  993  993  993  995  995  995  993  993  993  993  993  993  993  990  993  990  990  990  990  990  990  990  990  990  990  990  990  987  987  987  987  987  987  987  984  984  984  984  984  984  984  984  984  984  984  984  984  984  984  984  984  984  984  984  981  984  981  981
1107 1107 1107 1107 1107 1107 1107 1107 1107 1107 1107 1104 1104 1104 1104 1104 1100 1107 1104 1104 1104 1104 1104 1104 1104 1104 1104 1104 1104 1104 1104 1104 1104 1104 1104 1104 1104 1104 1104 1104 1104 1107 1107 1107 1107 1104 1107 1104 1104 1104 1107 1107 1111 1111 1107 1111 1111 1111 1111 1114 1114 1114 1118 1118 1118 1118 1122 1122 1122 1122 1122 1122 1122 1122 1118 1118 1118 1118 1118 1114 1114 1114 1114 1118 1118 1118 1118 1118 1118 1118 1114 1118 1118 1118 1118 1118 1114 1118 1118 1114 1114 1114 1114 1114 1118 1114 1114 1114 1114 1114 1114 1111 1111 1111 1107 1107 1107 1107 1107 1107 1107 1104 1104 1104 1107 1104 1104 1104 1104 1104 1104 1104 1104 1104 1104 1104 1104 1104 1104 1104 1104 1104 1100 1100 1100 1100 1100 1100 1104 1104 1104 1104 1104 1100 1104 1100 1100 1100 1100 1100 1100 1100 1097 1100 1097 1097 1097 1097 1093 1097 1093 1093 1093 1093 1093 1093 1093 1090 1090 1090 1090 1090 1090 1090 1090 1090 1086 1090 1090 1090 1090 1090 1090 1090 1090 1090 1090 1086 1086 1083 1083 1079 1079 1079 1079 1079 1079 1079 1079 1079 1079 1079 1079 1076 1079 1079 1079 1079 1079 1079 1079 1079 1079 1079 1079 1079 1076 1076 1076 1073 1073 1073 1073 1073 1073 1073 1073 1069 1069 1069 1069 1069 1069 1069 1069 1069 1069 1069 1069 1069 1069 1066 1066 1066 1066 1066 1066 1066 1066 1066 1066 1066 1066 1066 1063 1063 1063 1063 1063 1063 1063 1063 1063 1063 1063 1060 1060 1056 1056 1060 1060 1060 1060 1060 1060 1060 1060 1060 1060 1056 1060 1056 1056 1056 1060 1056 1056 1056 1056 1056 1056 1056 1056 1056 1056 1056 1056 1056 1056 1056 1056 1053 1053 1050 1050 1050 1050 1047 1047 1047 1047 1047 1047 1047 1047 1050 1050 1050 1050 1050 1050 1050 1050 1047 1047 1047 1047 1047 1047 1047 1047 1044 1044 1044 1044 1047 1047 1047 1047 1047 1044 1044 1044 1044 1044 1044 1040 1044 1044 1040 1040 1040 1040 1037 1037 1037 1037 1037 1037 1037 1037 1034 1037 1034 1034 1034 1034 1034 1034 1034 1034 1034 1034 1034 1034 1034 1031 1031 1031 1031 1031 1034 1034 1034 1037 1037 1040 1044 1047 1040 1047    0    0    0    0    0    0    0    0    0    0  990  987  990  990  990  987  990    0    0    0    0    0    0  990  990  990  990  990  990  987  987  984  984  984  984  987  990  990  990  984  978  978  978  978  981  981  981  981  984  984  984  981  984  984  981  981  981  978  978  978  978  978  978  976    0    0    0    0    0    0    0    0    0    0    0    0 1013 1016 1013 1013 1013 1013 1013 1013 1013 1010 1010 1007 1010 1007 1007 1007 1007 1007 1007 1007 1007 1007 1004 1004 1004 1004 1004 1004 1004 1004 1004 1004 1004 1004 1004 1004 1004 1001 1004 1001 1001 1001 1001  998  998  998  995  995  995  995  995  995  995  995  995  995  993  993  993  993  993  993  993  993  993  995  995  995  993  993  993  993  993  993  993  993  993  990  990  990  987  990  990  990  990  990  990  987  987  987  987  987  987  984  984  984  984  984  984  984  984  984  984  984  984  984  984  984  984  984  984  984  984  984  984  984  981  984  981  981
1107 1111 1111 1107 1107 1107 1107 1107 1107 1107 1107 1104 1104 1104 1104 1100 1100 1107 1104 1104 1104 1104 1104 1104 1100 1100 1100 1104 1104 1100 1100 1104 1104 1104 1104 1100 1100 1104 1104 1104 1104 1104 1104 1104 1104 1104 1104 1104 1100 1104 1104 1104 1107 1107 1107 1111 1111 1111 1111 1114 1114 1114 1118 1118 1118 1118 1118 1122 1122 1122 1122 1122 1122 1118 1118 1118 1118 1118 1118 1114 1114 1114 1114 1118 1118 1118 1118 1118 1118 1114 1114 1114 1114 1118 1114 1114 1114 1114 1114 1114 1114 1114 1114 1114 1114 1114 1114 1114 1114 1114 1114 1111 1111 1111 1107 1107 1107 1107 1107 1107 1107 1104 1104 1104 1107 1104 1104 1107 1104 1104 1104 1104 1104 1104 1104 1104 1104 1104 1104 1104 1104 1100 1100 1100 1100 1100 1100 1100 1104 1104 1104 1100 1100 1100 1100 1100 1100 1100 1100 1100 1100 1100 1100 1100 1097 1097 1097 1097 1093 1093 1093 1093 1093 1093 1093 1093 1090 1090 1090 1090 1090 1090 1090 1090 1090 1090 1090 1090 1090 1090 1090 1090 1090 1090 1090 1090 1086 1086 1086 1083 1079 1079 1079 1079 1079 1079 1079 1079 1079 1079 1079 1079 1079 1076 1079 1079 1079 1079 1079 1079 1079 1079 1079 1079 1079 1076 1076 1076 1073 1073 1073 1073 1073 1073 1073 1073 1073 1069 1069 1069 1069 1069 1069 1069 1069 1069 1069 1069 1069 1069 1069 1066 1066 1066 1066 1066 1066 1066 1066 1066 1066 1066 1066 1066 1066 1063 1063 1063 1063 1063 1063 1063 1063 1063 1063 1060 1060 1060 1056 1060 1060 1060 1060 1060 1060 1060 1060 1060 1060 1056 1056 1056 1056 1056 1056 1056 1056 1056 1056 1056 1056 1056 1056 1056 1056 1056 1056 1056 1056 1056 1056 1053 1053 1050 1050 1050 1050 1047 1047 1047 1047 1047 1047 1047 1047 1050 1050 1050 1050 1050 1050 1050 1050 1050 1047 1047 1047 1047 1047 1044 1044 1044 1044 1044 1044 1044 1044 1047 1047 1044 1044 1044 1044 1044 1040 1044 1040 1044 1040 1040 1040 1040 1040 1037 1037 1037 1037 1037 1037 1037 1037 1034 1037 1034 1034 1034 1034 1034 1034 1034 1034 1034 1034 1034 1034 1034 1034 1034 1031 1031 1031 1034 1034 1034 1037 1037 1044 1047 1047 1040 1040 1040    0    0    0    0    0    0    0    0  990  990  990  990  990  990  990  990  987    0    0    0    0    0  990  990  987  990  987  987  981  981  978  981  981  981  984  990  987  984  981  981  978  978  981  978  981  981  984  984  984  987  984  984  984  981  981  981  981  981  978  978  978  978    0    0    0    0    0    0    0    0    0    0    0    0    0 1013 1016 1016 1013 1013 1013 1013 1013 1013 1010 1010 1007 1007 1007 1007 1007 1007 1007 1007 1007 1007 1007 1007 1007 1007 1007 1004 1004 1004 1004 1004 1004 1001 1001 1001 1004 1004 1001 1001 1001 1001 1001 1001  998  998  998  995  995  995  995  995  995  995  995  995  995  993  993  993  993  993  993  993  993  993  995  993  993  993  993  993  993  993  993  993  993  993  990  990  990  987  990  990  990  990  990  990  990  987  987  987  987  984  984  984  984  984  984  984  984  984  984  984  981  984  984  984  984  984  984  984  984  984  984  984  984  981  984  984  984
1107 1111 1111 1107 1107 1107 1107 1107 1107 1107 1107 1104 1104 1104 1104 1100 1100 1104 1104 1104 1104 1104 1104 1100 1100 1100 1100 1100 1100 1100 1100 1100 1104 1100 1104 1100 1100 1104 1104 1104 1104 1104 1104 1104 1104 1104 1104 1104 1104 1104 1104 1104 1107 1107 1107 1111 1111 1111 1111 1114 1114 1114 1118 1118 1118 1118 1122 1122 1122 1122 1122 1122 1122 1118 1118 1118 1118 1118 1118 1114 1114 1114 1114 1118 1118 1118 1118 1118 1118 1114 1114 1114 1114 1118 1114 1114 1114 1114 1114 1114 1114 1114 1114 1114 1114 1114 1114 1114 1114 1111 1114 1111 1111 1111 1107 1107 1107 1107 1107 1107 1107 1107 1104 1107 1107 1104 1104 1107 1104 1104 1104 1104 1104 1104 1104 1104 1104 1104 1104 1104 1104 1100 1100 1100 1100 1100 1100 1100 1104 1100 1100 1100 1100 1100 1100 1100 1100 1100 1100 1100 1100 1100 1097 1097 1097 1097 1097 1097 1097 1093 1093 1093 1093 1093 1093 1093 1090 1090 1090 1090 1090 1090 1090 1090 1090 1090 1090 1090 1086 1090 1090 1090 1090 1090 1090 1086 1086 1086 1083 1083 1079 1079 1079 1079 1079 1079 1079 1079 1079 1079 1079 1079 1079 1079 1079 1079 1079 1079 1079 1079 1079 1079 1079 1079 1079 1076 1076 1076 1076 1073 1073 1073 1073 1073 1073 1069 1069 1069 1069 1069 1069 1069 1069 1069 1069 1069 1069 1069 1069 1066 1069 1066 1066 1066 1066 1066 1066 1066 1066 1066 1066 1066 1066 1066 1063 1063 1060 1060 1060 1060 1060 1063 1063 1063 1063 1060 1060 1060 1060 1060 1060 1060 1060 1060 1060 1060 1060 1060 1060 1056 1056 1056 1056 1056 1056 1056 1056 1056 1056 1056 1056 1056 1053 1056 1056 1056 1056 1056 1056 1056 1056 1053 1053 1050 1050 1050 1047 1047 1047 1047 1047 1047 1047 1047 1047 1050 1050 1050 1050 1050 1053 1050 1050 1050 1047 1047 1047 1047 1047 1044 1044 1044 1044 1044 1044 1044 1044 1047 1047 1044 1044 1044 1044 1040 1040 1040 1040 1044 1040 1044 1044 1044 1040 1037 1037 1037 1037 1037 1034 1034 1034 1034 1034 1034 1034 1034 1034 1034 1034 1034 1034 1034 1034 1034 1034 1034 1034 1031 1031 1031 1031 1031 1034 1034 1037 1037 1044 1047 1047 1040 1040    0    0    0    0    0    0    0    0    0    0  990  990  990  990  990  987  990  987    0    0    0    0    0    0  990  984  987  984  981  981  981  978  981  984  981  984  987  987  984  984  981  978  978  978  978  978  978  981    0  984  984  984  984  984  984  984 1013 1013 1013  978  978  978    0    0    0    0    0    0    0    0    0    0    0    0    0    0 1013 1016 1013 1013 1013 1013 1013 1013 1010 1010 1007 1007 1007 1007 1007 1007 1007 1007 1007 1007 1007 1007 1007 1007 1004 1004 1004 1004 1004 1004 1004 1004 1004 1001 1001 1004 1004 1004 1004 1004 1001 1001 1001 1001 1001  998  998  995  995  995  995  995  995  995  995  993  993  993  993  993  993  993  993  993  993  995  993  993  993  993  993  993  993  993  993  993  993  990  990  987  987  987  990  990  990  990  987  987  987  987  987  987  984  984  984  984  984  984  984  984  984  984  981  981  984  984  984  984  984  984  984  984  984  984  984  984  981  984  984  984
1107 1107 1107 1107 1107 1107 1107 1107 1107 1107 1107 1104 1104 1104 1100 1100 1100 1104 1100 1104 1104 1104 1100 1100 1100 1100 1100 1100 1100 1100 1100 1100 1100 1100 1100 1100 1100 1100 1100 1100 1100 1104 1104 1104 1104 1104 1104 1104 1104 1104 1100 1104 1107 1107 1107 1107 1111 1111 1111 1114 1114 1118 1122 1122 1122 1122 1122 1122 1122 1122 1122 1122 1122 1118 1118 1118 1118 1118 1118 1118 1114 1114 1114 1118 1118 1118 1114 1118 1118 1114 1114 1114 1114 1114 1114 1114 1114 1114 1114 1114 1114 1114 1114 1114 1114 1114 1114 1114 1111 1111 1114 1111 1111 1111 1107 1107 1107 1104 1104 1107 1107 1107 1104 1104 1107 1104 1104 1104 1104 1104 1104 1104 1104 1104 1104 1104 1104 1104 1104 1104 1104 1104 1100 1100 1100 1100 1100 1100 1104 1100 1100 1100 1100 1097 1100 1100 1100 1100 1097 1100 1100 1097 1097 1097 1097 1097 1097 1097 1097 1097 1093 1093 1093 1093 1093 1093 1090 1090 1090 1090 1090 1090 1090 1090 1090 1090 1090 1090 1090 1090 1090 1090 1086 1090 1090 1086 1086 1086 1083 1083 1079 1079 1079 1079 1079 1079 1079 1079 1079 1079 1079 1079 1079 1076 1079 1079 1079 1079 1076 1079 1079 1079 1079 1079 1079 1076 1076 1076 1076 1073 1073 1073 1073 1073 1073 1073 1069 1069 1069 1069 1069 1069 1069 1069 1069 1069 1069 1066 1069 1066 1066 1066 1066 1066 1066 1066 1066 1066 1066 1066 1066 1066 1066 1066 1063 1063 1060 1060 1063 1060 1060 1063 1063 1063 1063 1060 1060 1060 1056 1060 1060 1060 1060 1060 1060 1060 1060 1060 1060 1056 1060 1056 1056 1056 1056 1056 1056 1056 1056 1056 1056 1056 1053 1056 1056 1056 1056 1056 1056 1056 1056 1053 1053 1050 1050 1050 1050 1047 1047 1047 1047 1047 1047 1047 1047 1047 1050 1050 1050 1050 1050 1050 1050 1050 1047 1047 1047 1047 1047 1044 1044 1044 1044 1044 1044 1044 1044 1047 1044 1044 1044 1044 1040 1040 1040 1040 1040 1044 1040 1044 1044 1044 1040 1037 1037 1037 1037 1034 1034 1034 1034 1034 1034 1034 1034 1034 1034 1034 1034 1034 1034 1034 1034 1034 1034 1034 1031 1031 1028 1031 1031 1031 1031 1034 1034 1037 1044 1044 1047 1040 1040    0    0    0    0    0    0    0    0    0  990  990  990  990  987  990  987  987  990    0    0    0    0    0    0  981  981  981  978  973  978  978  976  981  981  981  984  987  987  984  984  981  978  978  978  978  978  978  981  984  984  984  984 1013 1013 1013 1013 1013 1013 1013 1013 1013 1013    0    0    0    0    0    0    0    0    0    0    0    0    0    0 1013 1016 1013 1013 1013 1013 1013 1013 1013 1010 1010 1007 1007 1007 1007 1007 1007 1007 1007 1007 1007 1007 1007 1007 1007 1007 1004 1004 1004 1004 1004 1004 1004 1001 1004 1004 1004 1004 1001 1001 1001 1001 1001 1001  998  998  998  995  995  995  995  995  995  995  995  993  993  993  993  993  993  993  993  993  993  995  995  995  993  993  993  993  993  993  993  993  990  990  987  987  987  987  987  987  987  987  987  987  987  987  984  984  984  984  984  984  984  984  984  984  984  984  984  981  984  984  984  984  984  984  984  984  984  981  981  981  981  981  981  981
1107 1107 1107 1107 1107 1107 1107 1107 1107 1107 1107 1104 1104 1104 1100 1100 1100 1104 1100 1100 1100 1100 1100 1100 1100 1100 1100 1100 1100 1100 1100 1100 1100 1100 1100 1100 1100 1100 1100 1100 1100 1100 1100 1100 1100 1100 1100 1100 1100 1100 1100 1104 1107 1107 1107 1111 1111 1111 1114 1114 1114 1118 1122 1122 1122 1122 1122 1122 1122 1122 1122 1122 1118 1118 1118 1118 1118 1118 1118 1118 1114 1118 1114 1118 1118 1118 1118 1118 1118 1114 1114 1118 1114 1114 1114 1114 1114 1114 1114 1114 1114 1114 1114 1114 1114 1114 1114 1111 1111 1111 1114 1111 1111 1111 1107 1107 1107 1107 1107 1107 1107 1107 1107 1107 1107 1107 1107 1107 1104 1104 1104 1104 1104 1104 1104 1104 1104 1104 1104 1104 1100 1104 1100 1100 1100 1100 1100 1100 1104 1100 1100 1100 1097 1097 1097 1097 1097 1097 1097 1097 1097 1097 1097 1097 1093 1097 1097 1097 1097 1093 1093 1093 1093 1093 1093 1093 1090 1090 1090 1090 1090 1090 1090 1090 1090 1090 1090 1090 1090 1090 1090 1090 1090 1090 1090 1086 1086 1086 1083 1083 1079 1079 1079 1079 1079 1079 1079 1079 1079 1079 1079 1079 1079 1076 1079 1079 1079 1079 1079 1079 1079 1079 1079 1079 1079 1076 1079 1076 1076 1073 1073 1073 1073 1073 1073 1069 1069 1069 1069 1069 1069 1069 1069 1069 1069 1069 1069 1066 1069 1066 1066 1066 1066 1066 1066 1066 1066 1066 1066 1066 1066 1066 1066 1066 1063 1063 1060 1060 1063 1060 1060 1063 1063 1063 1060 1060 1060 1060 1056 1060 1060 1063 1060 1060 1060 1060 1060 1060 1056 1056 1056 1056 1056 1056 1056 1056 1056 1056 1053 1053 1053 1056 1053 1056 1056 1056 1056 1056 1056 1056 1053 1053 1053 1050 1050 1050 1047 1047 1047 1047 1047 1047 1047 1047 1047 1050 1050 1050 1050 1050 1050 1050 1050 1050 1047 1047 1047 1047 1047 1044 1044 1044 1044 1044 1044 1047 1047 1047 1047 1047 1044 1044 1040 1040 1040 1040 1040 1040 1040 1040 1040 1040 1040 1037 1037 1037 1037 1034 1034 1034 1034 1034 1034 1034 1034 1034 1034 1034 1034 1034 1034 1034 1034 1034 1031 1031 1031 1031 1028 1031 1031 1031 1031 1031 1034 1034 1040 1044 1044 1040 1040    0    0    0    0    0    0    0    0    0    0  990  987  987  987  990  987  990  990  990    0    0    0    0  981  981  981  978  976  970  976  976  973  981  981  981  981  984  987  984  981  981  978  978  978  978  978    0    0    0    0 1013 1013 1013 1013 1013 1013 1013 1013 1013 1013 1013 1013    0    0    0    0    0    0    0    0    0    0    0    0    0    0 1013 1013 1013 1013 1013 1016 1016 1013 1013 1010 1010 1007 1007 1007 1007 1007 1007 1007 1007 1007 1007 1007 1004 1004 1007 1004 1004 1004 1004 1004 1004 1004 1004 1001 1004 1001 1004 1004 1001 1001 1001 1001 1001 1001 1001  998  998  995  995  995  995  995  995  995  995  993  993  993  993  993  993  993  993  993  993  995  993  993  993  993  993  993  993  993  993  993  990  990  990  987  987  987  987  987  987  987  987  987  987  987  984  984  984  984  984  984  984  984  984  984  984  984  981  981  984  984  984  984  984  984  984  984  984  981  981  981  981  981  978  978
1107 1107 1107 1107 1107 1107 1107 1107 1107 1107 1104 1104 1100 1100 1100 1100 1100 1104 1100 1100 1100 1100 1100 1100 1100 1100 1100 1100 1100 1100 1100 1100 1100 1100 1100 1100 1100 1100 1100 1100 1100 1100 1100 1100 1100 1100 1100 1100 1100 1100 1100 1104 1107 1107 1107 1107 1111 1111 1114 1114 1118 1122 1122 1122 1122 1122 1122 1122 1122 1122 1122 1118 1118 1118 1118 1118 1118 1114 1118 1118 1114 1118 1114 1118 1118 1118 1118 1118 1118 1118 1118 1118 1118 1118 1114 1114 1114 1114 1114 1114 1114 1114 1114 1114 1114 1114 1114 1111 1111 1111 1111 1111 1111 1111 1107 1111 1111 1107 1107 1111 1111 1107 1107 1107 1107 1107 1107 1104 1104 1104 1104 1104 1104 1104 1104 1104 1104 1104 1104 1104 1104 1104 1100 1100 1100 1100 1100 1100 1104 1100 1100 1097 1097 1097 1097 1097 1097 1097 1097 1097 1097 1097 1097 1097 1093 1097 1097 1097 1097 1093 1093 1093 1093 1093 1093 1093 1090 1090 1090 1090 1090 1090 1090 1090 1090 1090 1090 1090 1090 1090 1090 1090 1090 1090 1090 1086 1086 1086 1083 1083 1079 1079 1079 1079 1079 1079 1079 1079 1079 1079 1079 1079 1079 1079 1079 1079 1079 1079 1079 1079 1079 1079 1079 1079 1079 1079 1079 1076 1076 1076 1073 1073 1073 1073 1073 1073 1069 1069 1069 1069 1069 1069 1069 1069 1069 1069 1069 1069 1069 1069 1066 1066 1066 1066 1066 1066 1066 1066 1066 1066 1066 1066 1066 1066 1063 1063 1060 1060 1063 1060 1060 1060 1063 1063 1060 1060 1056 1056 1056 1060 1060 1060 1060 1060 1060 1060 1060 1056 1056 1056 1060 1056 1056 1056 1056 1056 1056 1056 1053 1053 1053 1056 1056 1056 1056 1056 1056 1056 1056 1053 1053 1053 1050 1050 1050 1047 1047 1047 1047 1047 1047 1047 1047 1047 1047 1050 1050 1050 1050 1050 1050 1050 1050 1050 1047 1047 1047 1047 1047 1044 1044 1044 1044 1044 1044 1047 1047 1047 1047 1047 1047 1044 1040 1040 1040 1040 1040 1040 1040 1044 1044 1044 1040 1040 1037 1037 1037 1034 1034 1034 1034 1034 1034 1034 1034 1034 1034 1034 1034 1034 1034 1034 1034 1034 1031 1034 1034 1031 1028 1031 1031 1031 1031 1031 1031 1034 1037 1037 1037 1044    0    0    0    0    0    0    0    0    0    0    0    0  987  987  987  990  990  990  990  990    0    0    0    0  981  981  978  973  970  970  973  973  973  981  981  981  981  984  987  987  984  981  978  978  981  978    0    0    0    0 1010 1010 1013 1013 1013 1013 1013 1013 1013 1013 1013 1013 1013 1013    0    0    0    0    0    0    0    0    0    0    0    0    0    0 1013 1013 1013 1013 1013 1013 1013 1010 1007 1007 1007 1007 1007 1007 1007 1007 1007 1007 1007 1007 1004 1004 1004 1004 1004 1004 1004 1004 1004 1004 1004 1001 1001 1001 1001 1004 1004 1004 1001 1001 1001 1001 1001 1001  998  998  998  998  995  995  995  995  995  995  995  993  993  993  993  993  993  993  990  990  993  993  993  993  993  993  993  993  993  993  993  990  990  990  987  987  987  987  987  987  987  987  987  987  987  984  984  984  984  984  984  984  984  984  984  981  981  981  981  981  984  984  984  984  984  984  984  984  981  981  981  981  978  978  978
1107 1107 1107 1107 1107 1107 1107 1107 1107 1104 1104 1104 1100 1100 1100 1097 1100 1100 1100 1100 1100 1100 1100 1100 1100 1100 1100 1100 1100 1100 1100 1100 1100 1100 1100 1100 1100 1100 1100 1100 1100 1100 1100 1097 1100 1100 1100 1097 1100 1104 1100 1100 1107 1107 1107 1111 1111 1111 1114 1118 1118 1122 1122 1122 1122 1122 1122 1122 1122 1122 1122 1118 1118 1118 1118 1118 1118 1114 1118 1118 1114 1118 1114 1118 1118 1118 1114 1114 1114 1114 1118 1118 1118 1118 1118 1114 1114 1114 1114 1114 1114 1114 1114 1114 1114 1114 1114 1111 1111 1111 1111 1111 1111 1107 1107 1111 1107 1107 1107 1111 1111 1107 1107 1107 1107 1107 1107 1104 1104 1104 1104 1104 1104 1104 1104 1104 1104 1104 1104 1104 1104 1104 1100 1100 1100 1100 1100 1100 1104 1100 1100 1097 1097 1097 1097 1097 1097 1097 1097 1097 1097 1097 1097 1097 1093 1097 1093 1093 1093 1093 1093 1090 1093 1093 1090 1090 1090 1090 1090 1090 1090 1090 1090 1090 1090 1090 1090 1090 1090 1090 1090 1090 1090 1090 1090 1086 1086 1086 1083 1083 1079 1079 1079 1079 1079 1079 1079 1079 1079 1079 1079 1079 1079 1076 1079 1079 1079 1079 1079 1079 1079 1079 1079 1079 1079 1076 1076 1076 1076 1073 1073 1073 1073 1073 1073 1073 1069 1069 1069 1069 1069 1069 1069 1069 1066 1066 1069 1066 1069 1066 1066 1066 1066 1066 1066 1066 1066 1066 1066 1066 1066 1066 1066 1066 1063 1063 1060 1060 1060 1063 1063 1063 1063 1060 1060 1060 1056 1056 1056 1060 1060 1060 1060 1060 1060 1060 1060 1056 1056 1056 1056 1056 1056 1056 1056 1056 1056 1056 1053 1053 1053 1056 1056 1056 1056 1056 1056 1056 1056 1056 1053 1053 1053 1050 1050 1047 1047 1047 1047 1047 1047 1047 1047 1047 1050 1050 1050 1050 1050 1050 1050 1050 1050 1050 1047 1047 1047 1047 1047 1044 1044 1044 1044 1044 1044 1047 1047 1047 1047 1047 1044 1044 1040 1040 1040 1037 1040 1040 1040 1040 1040 1040 1040 1037 1037 1037 1037 1034 1034 1034 1034 1034 1034 1034 1034 1034 1034 1034 1034 1034 1034 1034 1034 1034 1031 1031 1031 1031 1028 1031 1031 1031 1031 1031 1031 1034 1037 1037 1037 1037    0    0    0    0    0    0    0    0    0    0    0    0  987  987  981  987  987  990  990  990  990    0    0    0  981  981  978  973  970  968  970  973  973  978  981  981  981  984  987  987  984  981  978  978  978    0    0    0    0 1016 1016 1013 1013 1013 1013 1013 1016 1013 1013 1013 1013 1013 1013 1013 1013    0    0    0    0    0    0    0    0    0    0    0    0    0 1013 1013 1013 1010 1013 1013 1013 1010 1007 1007 1007 1007 1007 1007 1007 1007 1007 1007 1007 1007 1007 1004 1004 1004 1004 1004 1004 1004 1004 1004 1001 1001 1001 1001 1001 1001 1004 1001 1001 1001 1001 1001 1001  998  998  998  995  995  995  995  995  995  995  995  995  993  993  993  993  993  993  993  990  990  993  993  993  993  993  993  993  993  993  993  993  990  990  990  990  987  990  990  987  987  987  987  987  987  984  984  984  984  984  984  984  984  984  984  984  981  981  981  981  984  984  984  984  984  984  984  984  984  981  981  981  981  978  978  978
1107 1107 1107 1107 1107 1107 1107 1107 1104 1104 1104 1100 1100 1097 1097 1097 1097 1100 1100 1097 1100 1100 1100 1100 1097 1100 1100 1100 1100 1100 1100 1100 1100 1100 1100 1100 1100 1100 1100 1100 1100 1100 1100 1097 1100 1100 1097 1097 1097 1097 1100 1100 1104 1107 1107 1111 1111 1114 1114 1118 1122 1122 1122 1122 1122 1122 1122 1122 1122 1118 1118 1118 1118 1114 1118 1118 1114 1114 1114 1114 1114 1114 1114 1118 1114 1118 1114 1114 1114 1114 1114 1114 1114 1114 1114 1114 1114 1114 1114 1114 1114 1114 1114 1114 1114 1111 1111 1111 1111 1111 1111 1107 1107 1107 1107 1111 1111 1107 1107 1111 1111 1111 1107 1107 1107 1107 1107 1104 1104 1104 1104 1104 1104 1104 1104 1104 1104 1104 1104 1104 1100 1104 1100 1100 1100 1100 1100 1100 1104 1100 1100 1097 1097 1097 1097 1097 1097 1097 1097 1097 1093 1097 1097 1097 1093 1093 1093 1093 1093 1093 1093 1093 1093 1093 1090 1090 1090 1090 1090 1090 1090 1090 1090 1090 1090 1090 1090 1090 1090 1090 1090 1090 1090 1090 1086 1086 1086 1083 1083 1079 1079 1079 1079 1079 1079 1079 1079 1079 1079 1079 1079 1079 1079 1076 1079 1079 1079 1079 1079 1079 1079 1079 1079 1076 1076 1076 1076 1076 1076 1073 1073 1073 1073 1073 1073 1073 1069 1069 1069 1069 1069 1069 1069 1066 1066 1066 1069 1066 1066 1066 1066 1066 1066 1066 1066 1066 1063 1063 1063 1066 1066 1066 1063 1063 1063 1063 1060 1063 1060 1060 1060 1060 1063 1060 1060 1056 1056 1056 1056 1060 1060 1060 1060 1060 1060 1060 1060 1056 1056 1056 1056 1056 1056 1056 1056 1056 1056 1056 1053 1053 1053 1056 1056 1056 1056 1056 1056 1056 1056 1056 1053 1053 1053 1050 1050 1047 1047 1047 1047 1047 1047 1047 1047 1047 1047 1050 1050 1047 1050 1050 1050 1050 1050 1050 1047 1047 1047 1047 1047 1044 1044 1044 1044 1044 1044 1047 1047 1047 1047 1047 1044 1044 1040 1037 1037 1037 1037 1037 1037 1040 1040 1040 1040 1037 1037 1037 1037 1037 1034 1034 1034 1034 1034 1034 1034 1034 1034 1034 1034 1034 1034 1031 1031 1031 1031 1031 1031 1031 1028 1031 1028 1028 1031 1031 1031 1034 1037 1037 1037    0    0    0    0    0    0    0    0    0    0    0    0    0  987  987  987  987  987  990  990  993  990  990    0  981  981  981  981  976  973  968  973  973  970  973  976  981  981  984  987  990  987  978  978  978    0    0    0    0 1016 1013 1016 1016 1016 1016 1013 1016 1016 1016 1013 1013 1013 1016 1013 1010 1004 1004    0    0    0    0    0    0    0    0    0    0    0 1010 1010 1010 1010 1010 1010 1010 1010 1010 1010 1010 1010 1010 1010 1010 1007 1007 1007 1007 1007 1007 1004 1004 1004 1004 1004 1004 1004 1004 1004 1004 1001 1001 1001 1001 1001 1001 1001 1001 1001 1001 1001 1001 1001  998  998  998  998  995  995  995  995  995  995  995  995  993  993  993  993  993  990  990  990  990  993  993  990  990  990  990  990  993  993  990  993  990  990  990  990  987  990  990  987  987  987  987  987  987  987  984  984  984  987  984  987  984  984  984  984  981  981  981  981  984  984  984  984  984  984  984  984  984  981  981  981  981  978  976  976
1107 1107 1107 1107 1107 1107 1107 1107 1104 1104 1104 1100 1100 1097 1097 1097 1097 1100 1100 1097 1100 1097 1097 1100 1097 1100 1100 1100 1100 1100 1100 1100 1100 1100 1100 1100 1100 1100 1100 1100 1100 1097 1097 1097 1097 1100 1097 1097 1097 1097 1097 1100 1100 1104 1107 1111 1114 1114 1118 1122 1122 1122 1122 1122 1122 1122 1122 1118 1118 1118 1118 1114 1118 1114 1118 1118 1118 1114 1114 1114 1114 1114 1114 1118 1118 1118 1114 1114 1114 1114 1114 1114 1114 1114 1114 1114 1114 1114 1114 1114 1114 1114 1114 1114 1111 1111 1111 1111 1107 1107 1111 1107 1107 1107 1107 1111 1111 1107 1107 1111 1107 1107 1107 1107 1107 1107 1107 1104 1104 1104 1104 1104 1104 1104 1104 1104 1104 1100 1100 1100 1100 1104 1100 1100 1100 1100 1100 1100 1104 1100 1100 1100 1097 1097 1097 1097 1097 1097 1097 1097 1093 1097 1093 1097 1093 1093 1093 1093 1093 1093 1093 1090 1093 1090 1090 1090 1090 1090 1090 1090 1090 1090 1090 1090 1090 1090 1090 1090 1090 1090 1086 1086 1086 1086 1086 1083 1083 1083 1083 1083 1079 1079 1079 1079 1079 1079 1079 1079 1079 1079 1079 1079 1079 1076 1079 1079 1079 1079 1079 1079 1076 1076 1076 1076 1076 1076 1076 1076 1073 1073 1073 1073 1073 1073 1069 1069 1069 1069 1069 1069 1069 1069 1069 1066 1066 1066 1066 1066 1066 1066 1066 1066 1066 1063 1063 1063 1063 1063 1063 1063 1063 1066 1063 1063 1063 1063 1060 1063 1060 1060 1060 1063 1063 1060 1060 1056 1056 1056 1056 1060 1060 1060 1060 1060 1060 1060 1060 1056 1056 1056 1056 1056 1056 1056 1056 1056 1056 1056 1053 1053 1053 1056 1053 1056 1056 1056 1056 1056 1056 1056 1053 1053 1053 1050 1050 1047 1047 1047 1047 1047 1047 1047 1047 1047 1047 1050 1050 1047 1047 1050 1050 1050 1047 1047 1047 1047 1047 1047 1047 1044 1044 1044 1044 1044 1044 1047 1047 1047 1047 1047 1044 1044 1040 1037 1037 1037 1037 1037 1037 1037 1040 1040 1037 1037 1037 1037 1037 1037 1034 1034 1034 1034 1034 1034 1034 1034 1034 1034 1034 1034 1034 1034 1034 1034 1031 1031 1031 1031 1028 1031 1028 1028 1028 1028 1031 1031 1037 1034 1037    0    0    0    0    0    0    0    0    0    0    0    0    0    0  987  978  987  987  990  990  990  990  990  987  981  981  981  981  976  976  970  973  973  973  976  978  981  984  987  984  987  987  978    0    0    0    0    0    0 1016 1013 1016 1016 1016 1016 1013 1013 1016 1013 1013 1013 1010 1013 1013 1007 1004 1007    0    0    0    0    0    0    0    0    0    0    0 1010 1010 1007 1010 1010 1010 1010 1010 1010 1007 1010 1010 1010 1010 1010 1007 1007 1007 1007 1007 1007 1007 1004 1004 1007 1004 1004 1004 1004 1004 1004 1001 1001 1001 1001 1001 1001 1001 1001 1001 1001 1001  998  998  998  998  998  995  995  995  995  995  995  995  995  995  993  993  993  993  993  990  990  990  990  993  993  993  990  990  993  993  993  993  990  990  990  990  990  990  987  990  990  987  987  987  987  987  987  984  984  984  984  984  984  984  984  984  984  984  984  984  984  984  984  984  984  984  984  984  984  984  984  981  981  981  978  976  976  976
1107 1107 1107 1107 1107 1107 1107 1107 1104 1104 1100 1100 1100 1097 1097 1097 1097 1100 1100 1097 1100 1097 1097 1097 1097 1100 1100 1100 1100 1100 1100 1100 1100 1100 1100 1100 1100 1100 1100 1100 1100 1097 1097 1097 1097 1097 1097 1097 1097 1097 1097 1100 1100 1104 1111 1111 1114 1118 1122 1125 1125 1122 1122 1122 1122 1122 1122 1118 1118 1118 1118 1118 1118 1114 1118 1118 1118 1114 1114 1114 1114 1114 1114 1118 1118 1118 1118 1118 1114 1114 1118 1118 1114 1114 1114 1114 1114 1114 1114 1114 1114 1114 1114 1114 1111 1111 1111 1111 1107 1107 1111 1107 1107 1107 1107 1111 1111 1107 1107 1107 1107 1107 1107 1107 1107 1107 1107 1104 1104 1104 1104 1104 1104 1104 1100 1100 1100 1100 1100 1100 1100 1100 1100 1100 1100 1100 1100 1100 1104 1100 1100 1100 1100 1097 1097 1097 1097 1097 1097 1097 1093 1093 1093 1093 1093 1093 1093 1093 1093 1093 1093 1093 1093 1090 1090 1090 1090 1090 1090 1090 1090 1090 1090 1090 1090 1090 1090 1090 1090 1086 1086 1086 1086 1086 1086 1083 1083 1083 1083 1083 1079 1079 1079 1079 1079 1079 1079 1079 1079 1079 1079 1079 1079 1079 1079 1079 1079 1079 1079 1079 1076 1076 1076 1076 1076 1073 1073 1073 1073 1073 1073 1073 1069 1073 1069 1069 1069 1069 1069 1069 1069 1069 1069 1066 1066 1066 1066 1066 1066 1066 1066 1066 1066 1063 1063 1063 1063 1063 1063 1063 1063 1063 1063 1063 1063 1060 1060 1060 1060 1060 1060 1060 1060 1060 1060 1056 1056 1056 1056 1060 1060 1060 1060 1060 1060 1060 1060 1056 1056 1056 1056 1056 1056 1056 1056 1056 1056 1056 1053 1053 1053 1053 1056 1056 1056 1056 1056 1056 1056 1056 1053 1053 1053 1050 1050 1050 1047 1047 1047 1047 1047 1047 1047 1047 1047 1050 1047 1047 1047 1047 1047 1047 1047 1047 1047 1047 1047 1047 1044 1044 1044 1044 1044 1044 1044 1047 1047 1047 1047 1047 1044 1044 1040 1040 1040 1037 1037 1037 1037 1037 1040 1040 1037 1037 1037 1037 1037 1037 1037 1034 1034 1034 1034 1034 1034 1034 1034 1034 1034 1034 1034 1034 1034 1031 1031 1031 1031 1028 1028 1028 1028 1028 1028 1028 1031 1031 1034 1034 1034    0    0    0    0    0    0    0    0    0    0    0    0    0    0  978  978  984  987  987  987  990  987  987  987  981  981  981  981  976  976  973  976  973  973  973  978  981  981  981    0    0    0    0    0    0    0    0    0    0 1016 1013 1016 1016 1016 1016 1013 1013 1013 1013 1013 1010 1010 1013 1010 1007 1004 1007 1007    0    0    0    0    0    0    0    0    0    0 1010 1010 1010 1010 1010 1010 1010 1010 1010 1007 1010 1010 1010 1010 1010 1007 1007 1007 1007 1007 1007 1004 1004 1004 1004 1004 1004 1004 1004 1004 1001 1001 1001 1001 1001 1001 1001 1001  998  998  998  998  998  998  998  995  998  995  998  995  998  995  995  995  995  995  993  993  993  993  993  990  990  990  990  993  993  990  990  990  990  990  993  993  990  990  990  990  990  990  987  987  987  987  987  987  987  984  984  984  984  984  984  984  984  984  984  984  984  984  984  984  984  984  984  984  984  984  984  984  984  984  981  981  978  978  976  976  976  976
1107 1107 1107 1107 1104 1104 1104 1104 1104 1100 1100 1100 1100 1097 1097 1097 1097 1100 1100 1097 1097 1097 1097 1097 1100 1100 1100 1100 1100 1100 1100 1100 1100 1100 1100 1100 1100 1100 1100 1097 1097 1097 1097 1097 1097 1097 1097 1097 1097 1097 1097 1100 1100 1104 1114 1114 1118 1122 1122 1125 1125 1122 1122 1122 1122 1122 1118 1118 1118 1118 1118 1114 1114 1114 1118 1118 1114 1114 1114 1114 1114 1114 1114 1118 1118 1118 1118 1118 1114 1114 1114 1114 1114 1114 1114 1114 1114 1114 1114 1114 1114 1114 1114 1114 1111 1111 1111 1111 1107 1107 1107 1107 1107 1107 1107 1107 1111 1107 1107 1107 1107 1107 1107 1107 1107 1107 1107 1104 1104 1104 1104 1104 1104 1104 1100 1100 1100 1100 1100 1100 1100 1100 1100 1100 1100 1100 1100 1100 1104 1100 1100 1100 1100 1097 1097 1097 1097 1097 1097 1097 1093 1093 1093 1093 1093 1093 1093 1093 1093 1093 1093 1093 1093 1090 1090 1090 1090 1090 1090 1090 1090 1090 1090 1090 1090 1090 1090 1090 1090 1086 1086 1086 1086 1086 1086 1083 1083 1083 1083 1083 1079 1079 1079 1079 1079 1079 1079 1079 1079 1079 1079 1079 1079 1079 1079 1079 1079 1079 1079 1079 1076 1076 1076 1076 1076 1073 1073 1073 1073 1073 1073 1073 1073 1073 1069 1069 1069 1069 1069 1069 1069 1069 1069 1066 1066 1066 1066 1066 1066 1066 1066 1066 1066 1063 1063 1063 1063 1063 1063 1063 1063 1063 1063 1063 1063 1060 1060 1060 1060 1060 1060 1060 1060 1060 1060 1056 1056 1056 1056 1060 1060 1060 1060 1060 1060 1060 1060 1056 1056 1056 1056 1056 1056 1056 1056 1056 1056 1056 1053 1053 1053 1053 1056 1056 1056 1056 1056 1056 1056 1053 1053 1053 1050 1050 1050 1050 1050 1047 1047 1047 1047 1047 1047 1047 1047 1047 1047 1047 1047 1047 1047 1047 1047 1047 1047 1047 1047 1047 1044 1044 1044 1044 1044 1044 1044 1047 1047 1047 1047 1047 1044 1044 1040 1040 1040 1037 1037 1037 1037 1037 1037 1040 1037 1037 1037 1037 1037 1037 1037 1034 1034 1034 1034 1034 1031 1031 1031 1031 1031 1031 1031 1034 1034 1031 1031 1031 1031 1031 1028 1031 1028 1028 1028 1028 1031 1031 1034 1034 1037 1034    0    0    0    0    0    0    0    0    0    0    0    0    0  978  981  984  987  987  987  990  990  990  987  987  984  984  981  973  976  973  976  973  973  976  978  981  978  981    0    0    0    0    0    0    0    0    0    0 1016 1016 1016 1016 1016 1016 1013 1013 1013 1013 1013 1010 1010 1013 1010 1007 1007 1007 1013 1013 1013 1013    0    0 1013 1013 1013 1016 1010 1016 1013 1010 1010 1010 1010 1010 1010 1010 1010 1010 1010 1010 1010 1010 1007 1007 1007 1007 1007 1004 1004 1004 1004 1004 1004 1004 1004 1004 1004 1004 1004 1004 1001 1001 1001 1001 1001  998  998  998  998  998  998  998  995  995  995  995  995  995  995  995  995  995  995  995  995  993  993  993  993  993  990  990  993  993  990  990  990  990  990  990  990  990  990  990  990  990  990  987  987  987  987  987  987  987  984  984  984  984  984  984  984  984  984  984  984  984  984  981  984  984  984  984  984  984  984  984  981  981  981  981  978  978  978  976  976  976  976
1107 1104 1107 1104 1104 1104 1104 1100 1100 1100 1097 1097 1097 1097 1097 1097 1097 1100 1100 1097 1097 1097 1097 1097 1097 1097 1097 1100 1100 1100 1100 1100 1100 1100 1100 1100 1100 1100 1097 1097 1097 1097 1097 1097 1097 1097 1097 1097 1097 1097 1100 1100 1100 1104 1114 1114 1122 1125 1122 1125 1125 1122 1122 1122 1122 1122 1122 1118 1118 1118 1114 1114 1114 1114 1114 1118 1114 1114 1114 1114 1114 1114 1114 1118 1118 1118 1118 1118 1114 1114 1114 1114 1114 1114 1114 1114 1114 1114 1114 1114 1114 1114 1114 1114 1114 1111 1111 1111 1107 1107 1111 1107 1107 1107 1111 1111 1111 1111 1111 1111 1107 1107 1107 1107 1107 1104 1104 1104 1104 1104 1104 1104 1104 1104 1104 1104 1100 1100 1100 1100 1100 1100 1100 1100 1100 1100 1100 1100 1104 1100 1100 1100 1100 1097 1097 1097 1097 1097 1097 1097 1097 1097 1093 1093 1093 1093 1093 1093 1093 1093 1093 1093 1093 1093 1090 1090 1093 1090 1090 1090 1090 1090 1090 1090 1086 1090 1086 1090 1090 1086 1086 1086 1086 1086 1086 1083 1083 1086 1083 1083 1079 1083 1079 1079 1079 1079 1079 1079 1079 1079 1079 1079 1079 1079 1079 1079 1079 1079 1079 1079 1076 1076 1076 1076 1076 1073 1073 1073 1073 1069 1069 1069 1069 1069 1069 1073 1069 1069 1069 1069 1069 1069 1066 1066 1066 1066 1066 1066 1066 1066 1066 1066 1066 1063 1063 1063 1063 1063 1063 1066 1063 1063 1063 1060 1060 1060 1060 1060 1060 1060 1060 1060 1060 1060 1060 1056 1056 1056 1056 1060 1060 1060 1060 1060 1060 1060 1060 1056 1056 1056 1056 1056 1056 1056 1056 1056 1056 1056 1053 1053 1053 1053 1053 1053 1056 1056 1056 1056 1053 1053 1053 1053 1050 1050 1050 1050 1050 1047 1047 1047 1047 1047 1047 1047 1047 1047 1047 1047 1047 1047 1047 1047 1047 1047 1047 1047 1044 1044 1044 1044 1044 1044 1044 1044 1044 1047 1047 1047 1047 1047 1044 1044 1040 1040 1037 1037 1037 1037 1037 1037 1037 1037 1037 1037 1037 1037 1037 1037 1037 1034 1034 1034 1034 1034 1034 1031 1031 1031 1031 1031 1031 1034 1031 1034 1031 1031 1031 1031 1031 1031 1028 1028 1028 1028 1031 1031 1034 1034 1034 1034    0    0    0    0    0    0    0    0    0    0    0    0    0    0  978  981  987  987  987  990  987  987  987  981  981  984  981  976  978  978  978  976  976  976  978  981    0    0    0    0    0    0    0    0    0    0    0    0 1016 1016 1019 1019 1016 1016 1016 1016 1013 1013 1010 1007 1007 1010 1007 1007 1007 1010 1013 1013 1013 1013 1013 1013 1013 1013 1013 1010 1013 1016 1010 1010 1010 1010 1007 1007 1007 1010 1007 1010 1010 1010 1010 1010 1007 1007 1007 1007 1004 1004 1004 1004 1004 1004 1004 1004 1004 1004 1004 1004 1004 1004 1001 1001 1001 1001 1001  998  998  998  998  998  998  998  995  995  995  995  995  995  995  995  995  995  995  995  995  993  993  993  993  993  990  990  993  990  990  990  990  990  990  990  990  990  990  990  990  990  990  987  987  987  987  987  987  987  987  984  984  984  984  984  984  984  984  984  981  981  984  981  984  984  984  984  984  984  981  981  981  981  981  981  981  981  978  978  976  976  976
1104 1104 1104 1104 1104 1104 1104 1100 1100 1100 1097 1097 1097 1097 1097 1097 1097 1097 1097 1097 1097 1097 1097 1097 1097 1097 1097 1100 1100 1100 1100 1100 1100 1100 1100 1100 1100 1097 1097 1097 1093 1093 1093 1097 1097 1097 1097 1097 1097 1097 1100 1100 1104 1114 1118 1114 1122 1125 1122 1125 1125 1122 1122 1122 1122 1118 1118 1118 1118 1118 1118 1114 1114 1114 1114 1118 1114 1114 1114 1114 1114 1114 1114 1118 1118 1118 1118 1114 1114 1114 1114 1114 1114 1114 1114 1114 1114 1114 1114 1111 1111 1114 1111 1114 1111 1111 1111 1111 1111 1111 1111 1111 1107 1111 1111 1111 1111 1111 1107 1107 1107 1107 1107 1104 1104 1104 1104 1104 1104 1104 1104 1104 1104 1104 1100 1100 1100 1100 1100 1100 1100 1100 1100 1100 1100 1100 1100 1100 1104 1100 1100 1100 1100 1100 1097 1097 1097 1097 1097 1097 1097 1097 1093 1093 1093 1093 1093 1093 1093 1093 1093 1093 1093 1093 1093 1093 1093 1090 1090 1090 1090 1090 1090 1086 1086 1086 1086 1086 1090 1086 1086 1086 1086 1083 1086 1083 1083 1083 1083 1083 1079 1083 1079 1079 1079 1079 1079 1079 1079 1076 1079 1076 1079 1076 1079 1079 1079 1079 1079 1076 1076 1076 1076 1076 1073 1073 1073 1073 1073 1069 1069 1069 1069 1069 1069 1069 1069 1069 1069 1069 1069 1069 1066 1066 1066 1066 1066 1066 1066 1066 1066 1066 1066 1063 1063 1063 1063 1063 1063 1063 1063 1063 1063 1063 1060 1060 1060 1060 1060 1060 1060 1060 1060 1060 1060 1056 1056 1056 1056 1056 1060 1060 1060 1060 1060 1060 1060 1056 1056 1056 1056 1056 1056 1056 1056 1056 1056 1056 1053 1053 1053 1053 1053 1053 1053 1053 1056 1053 1053 1050 1050 1050 1050 1050 1050 1050 1050 1050 1050 1050 1047 1047 1047 1047 1047 1047 1047 1047 1047 1047 1047 1047 1047 1047 1044 1044 1044 1044 1044 1044 1044 1044 1044 1044 1044 1047 1047 1047 1047 1044 1044 1044 1040 1040 1040 1037 1037 1037 1037 1037 1037 1037 1037 1037 1037 1037 1037 1037 1037 1034 1034 1034 1034 1034 1034 1034 1034 1034 1034 1034 1034 1034 1034 1034 1031 1031 1031 1031 1031 1031 1028 1028 1028 1028 1031 1031 1034 1031 1034 1037 1037    0    0    0    0    0    0    0    0    0    0    0    0    0    0  987  987  987  987  987  987  987  981  981  981  978  981  978  978  978  978  976  976  976  976  976    0    0    0    0    0    0    0    0    0    0    0    0 1016 1013 1016 1016 1016 1016 1016 1016 1016 1013 1013 1016 1010 1013 1010 1007 1010 1013 1013 1013 1013 1010 1013 1013 1013 1013 1013 1010 1016 1016 1013 1010 1010 1010 1007 1007 1007 1010 1007 1010 1010 1010 1010 1007 1007 1007 1007 1007 1004 1004 1004 1004 1004 1004 1004 1004 1004 1004 1004 1004 1004 1004 1001 1001 1001  998  998  998  998  998  998  995  995  995  995  995  995  995  995  995  995  995  995  995  995  995  995  995  993  993  993  993  993  990  993  993  990  990  990  987  987  990  990  987  987  990  990  990  990  987  987  987  987  987  987  987  987  984  984  984  984  984  984  984  981  981  981  981  984  981  984  984  984  981  981  981  978  978  978  978  978  978  978  978  978  976  976  976  976
1104 1104 1104 1104 1104 1104 1104 1100 1100 1100 1100 1097 1097 1097 1097 1097 1093 1097 1097 1097 1097 1097 1097 1097 1097 1097 1097 1100 1100 1100 1100 1100 1100 1100 1100 1100 1097 1097 1097 1097 1093 1093 1093 1093 1097 1097 1097 1097 1097 1097 1100 1100 1104 1118 1122 1122 1125 1125 1122 1125 1122 1122 1122 1122 1122 1118 1118 1118 1118 1118 1118 1114 1114 1114 1114 1114 1114 1114 1114 1114 1114 1114 1114 1118 1118 1118 1118 1114 1114 1114 1114 1114 1114 1114 1114 1114 1114 1114 1114 1111 1111 1111 1111 1111 1111 1111 1111 1111 1111 1111 1111 1107 1107 1107 1111 1107 1111 1107 1107 1107 1104 1104 1104 1104 1104 1104 1104 1104 1104 1104 1104 1104 1104 1104 1100 1100 1100 1100 1100 1100 1100 1100 1100 1100 1100 1100 1100 1100 1104 1100 1100 1100 1100 1100 1097 1100 1097 1097 1097 1097 1097 1097 1093 1093 1093 1093 1093 1093 1093 1093 1093 1093 1093 1093 1093 1093 1093 1093 1090 1090 1090 1090 1090 1090 1086 1086 1086 1086 1086 1086 1086 1083 1083 1083 1083 1083 1083 1083 1083 1083 1079 1079 1079 1079 1079 1079 1079 1079 1079 1079 1079 1076 1079 1076 1079 1079 1079 1079 1079 1076 1076 1076 1076 1076 1073 1073 1073 1073 1073 1069 1069 1069 1069 1069 1069 1069 1069 1069 1069 1069 1069 1069 1066 1066 1066 1066 1066 1066 1066 1066 1066 1066 1063 1063 1063 1063 1063 1063 1063 1063 1063 1063 1063 1060 1060 1060 1060 1060 1060 1060 1060 1060 1060 1060 1060 1056 1056 1056 1056 1060 1060 1060 1060 1060 1060 1060 1060 1060 1056 1056 1056 1056 1056 1056 1056 1056 1056 1056 1053 1056 1053 1053 1053 1053 1053 1053 1056 1053 1053 1050 1050 1050 1050 1050 1050 1050 1050 1050 1050 1050 1047 1047 1047 1047 1047 1047 1047 1044 1044 1047 1047 1044 1044 1044 1044 1044 1044 1044 1044 1044 1044 1044 1044 1044 1044 1047 1044 1047 1044 1044 1040 1040 1040 1040 1040 1037 1037 1037 1037 1037 1037 1037 1037 1037 1037 1037 1037 1037 1034 1034 1034 1034 1034 1034 1034 1034 1034 1034 1034 1034 1031 1034 1034 1031 1031 1031 1031 1031 1031 1031 1028 1028 1028 1028 1031 1031 1034 1034 1034 1037 1037    0    0    0    0    0    0    0    0    0    0    0    0    0    0    0    0    0    0    0  987  987  981  981  981  978  981  981  981  981  981  981  981  981  984    0    0    0    0    0    0    0    0    0    0    0    0    0 1016 1016 1016 1019 1016 1016 1016 1016 1016 1013 1013 1016 1010 1013 1010 1007 1010 1013 1013 1013 1010 1010 1013 1013 1010 1010 1010 1010 1013 1013 1010 1010 1010 1010 1007 1007 1010 1010 1010 1010 1010 1010 1010 1007 1007 1007 1007 1007 1004 1004 1004 1004 1004 1004 1004 1004 1004 1004 1004 1004 1004 1004 1001 1004 1001 1001 1001  998  998  998  998  995  995  995  995  995  995  995  995  995  995  995  995  995  995  995  995  995  993  993  993  993  993  990  993  990  990  990  990  990  987  990  987  987  987  990  987  987  990  987  987  987  987  987  987  987  984  984  984  984  984  984  984  984  981  981  981  981  981  981  984  984  984  984  984  981  981  981  978  978  978  978  978  978  978  976  976  973  973
1104 1100 1104 1104 1100 1100 1100 1100 1100 1100 1097 1097 1097 1097 1097 1093 1097 1097 1097 1097 1097 1097 1097 1097 1097 1097 1097 1097 1097 1100 1100 1100 1100 1100 1097 1097 1097 1097 1097 1093 1093 1093 1093 1093 1093 1097 1097 1097 1097 1100 1100 1104 1107 1111 1122 1125 1125 1125 1122 1125 1122 1122 1122 1122 1122 1118 1118 1118 1118 1118 1118 1114 1114 1114 1114 1118 1114 1114 1114 1114 1114 1114 1114 1118 1118 1118 1118 1118 1114 1114 1114 1114 1114 1114 1114 1114 1114 1114 1114 1111 1111 1111 1111 1111 1111 1111 1111 1111 1111 1111 1111 1111 1107 1107 1107 1107 1107 1107 1107 1104 1104 1104 1104 1104 1104 1104 1104 1104 1104 1104 1104 1104 1104 1100 1100 1100 1100 1100 1100 1100 1100 1100 1100 1100 1100 1100 1100 1100 1100 1100 1100 1100 1100 1100 1100 1100 1100 1097 1097 1097 1097 1097 1093 1093 1093 1093 1093 1093 1093 1093 1093 1093 1093 1093 1093 1093 1093 1093 1090 1090 1090 1090 1090 1086 1086 1086 1086 1086 1086 1086 1086 1086 1086 1083 1086 1083 1083 1083 1083 1083 1079 1079 1079 1079 1079 1079 1079 1079 1079 1079 1079 1079 1079 1079 1079 1079 1079 1079 1079 1076 1076 1073 1073 1073 1073 1073 1073 1073 1073 1069 1069 1069 1069 1069 1069 1069 1069 1069 1069 1069 1069 1069 1069 1066 1066 1066 1066 1066 1066 1066 1066 1066 1063 1063 1063 1063 1063 1063 1063 1063 1063 1063 1063 1060 1060 1060 1060 1060 1060 1056 1060 1060 1060 1060 1056 1056 1056 1056 1056 1060 1056 1060 1056 1060 1060 1060 1060 1060 1056 1056 1056 1056 1056 1056 1056 1056 1056 1056 1056 1056 1053 1053 1053 1053 1053 1053 1056 1053 1053 1050 1050 1050 1050 1050 1050 1050 1050 1050 1047 1047 1047 1047 1044 1044 1044 1047 1047 1047 1047 1047 1047 1047 1044 1047 1044 1044 1044 1044 1044 1044 1044 1044 1044 1044 1044 1047 1044 1044 1044 1044 1040 1040 1040 1040 1040 1037 1037 1037 1037 1037 1037 1037 1037 1037 1037 1037 1037 1037 1034 1034 1034 1034 1034 1034 1034 1034 1034 1034 1034 1031 1031 1034 1031 1034 1031 1031 1031 1031 1028 1031 1028 1028 1025 1028 1028 1031 1034 1034 1034 1037 1037 1037    0    0    0    0    0    0    0    0    0    0    0    0    0    0    0    0    0    0    0    0  981  981  981  978  978  978  981  981  981  978  981  976    0    0    0    0    0    0    0    0    0    0    0    0    0 1013 1016 1013 1016 1016 1016 1016 1016 1016 1016 1010 1013 1013 1010 1010 1010 1007 1010 1010 1013 1013 1010 1010 1010 1010 1010 1010 1010 1010 1013 1010 1010 1010 1010 1007 1007 1007 1007 1010 1007 1007 1007 1010 1007 1007 1007 1004 1007 1004 1004 1004 1004 1004 1004 1004 1004 1004 1004 1004 1004 1004 1004 1004 1001 1001 1001  998  998  998  998  998  995  995  995  995  995  995  995  995  995  995  993  993  995  995  993  995  995  995  993  993  993  993  993  990  993  990  990  990  990  990  987  987  987  987  987  987  987  987  987  987  987  987  987  987  984  984  984  984  984  984  984  984  984  984  981  981  981  981  981  981  981  981  981  981  981  981  978  978  978  978  976  978  976  976  976  976  973  973  973
1104 1100 1100 1100 1100 1100 1097 1100 1100 1100 1097 1097 1097 1097 1097 1097 1093 1097 1097 1097 1097 1097 1097 1097 1097 1097 1097 1097 1097 1100 1100 1100 1097 1097 1097 1097 1093 1093 1093 1090 1090 1093 1093 1093 1093 1097 1097 1097 1100 1100 1100 1104 1107 1114 1125 1125 1122 1122 1122 1122 1122 1118 1118 1118 1118 1118 1118 1118 1114 1118 1118 1114 1114 1114 1114 1118 1118 1114 1114 1114 1114 1114 1114 1118 1118 1118 1118 1118 1114 1114 1114 1114 1114 1114 1114 1114 1114 1114 1114 1111 1111 1111 1111 1111 1111 1111 1111 1111 1111 1111 1111 1111 1107 1107 1107 1107 1107 1107 1107 1104 1104 1104 1104 1104 1100 1104 1100 1100 1104 1104 1104 1104 1104 1100 1100 1100 1100 1100 1100 1100 1100 1100 1100 1100 1100 1100 1100 1100 1100 1100 1100 1100 1100 1100 1100 1100 1097 1097 1097 1097 1097 1093 1093 1093 1093 1093 1093 1093 1093 1093 1093 1093 1093 1093 1093 1093 1093 1093 1090 1090 1090 1090 1090 1086 1086 1086 1086 1086 1086 1086 1086 1086 1086 1086 1086 1083 1083 1083 1083 1083 1079 1079 1079 1079 1079 1079 1079 1079 1079 1079 1079 1079 1079 1079 1079 1079 1079 1079 1079 1076 1076 1073 1076 1073 1073 1073 1073 1073 1073 1069 1069 1069 1069 1069 1069 1069 1069 1069 1069 1069 1069 1069 1066 1066 1066 1066 1066 1066 1066 1066 1066 1066 1063 1066 1063 1063 1063 1063 1063 1066 1066 1063 1063 1063 1060 1060 1060 1060 1060 1060 1060 1060 1060 1060 1060 1056 1056 1056 1056 1060 1056 1060 1056 1056 1060 1060 1060 1060 1056 1056 1056 1056 1056 1056 1056 1056 1056 1056 1056 1056 1056 1056 1056 1053 1053 1053 1053 1053 1050 1050 1050 1050 1050 1050 1050 1050 1050 1047 1047 1047 1047 1047 1044 1044 1047 1047 1047 1047 1047 1047 1047 1047 1047 1047 1044 1044 1044 1044 1044 1044 1044 1044 1044 1044 1044 1047 1044 1047 1044 1044 1040 1040 1040 1040 1040 1037 1037 1037 1037 1037 1037 1037 1037 1037 1037 1037 1037 1034 1034 1034 1034 1034 1034 1034 1034 1034 1034 1034 1031 1031 1031 1034 1031 1034 1031 1031 1031 1031 1028 1028 1028 1025 1025 1028 1028 1031 1031 1031 1034 1034 1037 1034 1037    0    0    0    0    0    0    0    0    0    0    0    0    0    0    0    0    0    0    0    0  978  981  978  978  978  981  981  981  978  981  981    0    0    0    0    0    0    0    0    0    0    0 1013 1013 1013 1016 1016 1016 1019 1019 1016 1016 1016 1016 1010 1010 1010 1010 1010 1007 1007 1010 1010 1013 1013 1010 1010 1010 1010 1010 1010 1010 1010 1013 1013 1010 1010 1010 1010 1007 1010 1010 1010 1010 1007 1007 1007 1007 1007 1004 1004 1004 1004 1004 1004 1004 1004 1004 1004 1004 1004 1004 1004 1004 1004 1004 1004 1001 1001 1001 1001  998  998  998  998  998  995  995  995  995  995  995  995  995  995  993  993  993  993  993  993  995  993  993  993  993  993  993  993  993  993  990  990  990  990  987  987  987  987  987  987  987  987  987  987  987  987  987  984  984  984  984  984  984  984  984  984  984  984  981  981  981  981  981  981  981  981  981  981  981  978  978  978  976  976  976  976  976  976  976  973  973  973  973
1100 1100 1100 1100 1097 1100 1097 1100 1100 1100 1097 1097 1097 1097 1097 1093 1093 1097 1097 1097 1097 1097 1097 1097 1097 1097 1097 1097 1097 1097 1097 1097 1097 1097 1093 1093 1093 1090 1090 1090 1090 1090 1093 1093 1093 1097 1097 1097 1100 1100 1104 1107 1114 1118 1122 1122 1122 1122 1122 1122 1122 1118 1122 1118 1118 1118 1118 1118 1118 1118 1118 1118 1114 1114 1118 1118 1114 1114 1114 1114 1114 1114 1114 1118 1118 1118 1118 1118 1118 1114 1114 1114 1114 1114 1114 1114 1114 1114 1114 1111 1111 1111 1111 1111 1111 1111 1111 1111 1111 1111 1111 1111 1107 1107 1107 1107 1107 1107 1107 1104 1104 1104 1100 1100 1100 1100 1100 1100 1104 1104 1104 1104 1104 1104 1100 1100 1100 1100 1100 1100 1100 1100 1100 1100 1100 1100 1100 1100 1100 1100 1100 1100 1100 1100 1100 1097 1097 1097 1097 1093 1093 1093 1093 1093 1093 1093 1093 1093 1093 1093 1093 1093 1093 1093 1093 1093 1093 1093 1093 1090 1090 1090 1090 1090 1086 1086 1086 1086 1090 1086 1086 1086 1086 1086 1086 1083 1083 1083 1083 1083 1083 1079 1079 1079 1079 1076 1076 1076 1076 1076 1079 1076 1079 1076 1079 1079 1079 1079 1076 1076 1073 1073 1076 1073 1073 1073 1073 1073 1073 1073 1069 1069 1069 1069 1069 1069 1069 1069 1069 1069 1069 1069 1066 1066 1066 1066 1066 1066 1066 1066 1066 1066 1063 1066 1063 1063 1063 1063 1063 1066 1066 1063 1063 1063 1060 1060 1060 1060 1060 1060 1060 1060 1060 1060 1060 1056 1056 1056 1056 1060 1056 1060 1056 1056 1060 1060 1060 1060 1056 1056 1056 1056 1056 1056 1056 1056 1056 1056 1056 1056 1056 1056 1053 1053 1053 1053 1053 1050 1050 1050 1050 1050 1050 1047 1047 1047 1050 1047 1047 1047 1047 1047 1047 1047 1047 1047 1047 1047 1047 1047 1047 1047 1047 1047 1044 1044 1044 1044 1044 1044 1044 1044 1044 1044 1044 1047 1047 1047 1044 1044 1040 1040 1040 1040 1037 1037 1037 1037 1037 1037 1037 1037 1037 1037 1037 1037 1037 1034 1034 1034 1034 1034 1034 1034 1034 1034 1031 1031 1031 1031 1031 1031 1031 1031 1031 1031 1031 1028 1028 1028 1028 1025 1025 1028 1028 1031 1031 1031 1031 1034 1034 1034 1034    0    0    0    0    0    0    0    0    0    0    0    0    0    0    0    0    0    0    0    0  978  981  976  976  978  978  978  981    0    0    0    0    0    0    0    0    0    0 1013 1013 1013 1010 1013 1013 1013 1013 1016 1016 1016 1016 1016 1016 1016 1016 1013 1013 1013 1013 1013 1010 1010 1013 1013 1013 1013 1010 1010 1010 1010 1010 1010 1010 1010 1013 1013 1010 1010 1010 1010 1007 1010 1010 1010 1007 1007 1007 1007 1007 1007 1004 1004 1004 1004 1004 1004 1004 1004 1004 1004 1004 1004 1004 1004 1004 1004 1004 1004 1004 1001 1001  998  998  998  998  998  995  995  995  995  995  995  995  993  993  993  993  993  993  993  993  993  993  993  993  993  993  993  993  993  995  993  993  990  990  990  987  987  987  987  987  987  987  987  987  984  984  987  984  984  984  984  984  984  984  984  984  984  984  984  984  981  981  984  981  981  981  981  981  981  978  978  978  978  976  976  976  976  976  976  976  976  973  973  973
1100 1097 1100 1097 1100 1097 1097 1097 1100 1100 1097 1097 1097 1097 1097 1093 1093 1097 1097 1097 1097 1097 1097 1097 1097 1097 1097 1097 1097 1097 1097 1097 1093 1093 1093 1090 1090 1090 1090 1086 1086 1090 1090 1093 1093 1097 1097 1100 1100 1104 1104 1111 1114 1118 1122 1122 1122 1122 1122 1118 1118 1118 1118 1118 1118 1118 1118 1118 1114 1118 1114 1114 1114 1114 1114 1114 1114 1114 1114 1114 1114 1114 1114 1118 1118 1118 1118 1118 1114 1114 1114 1114 1114 1114 1114 1114 1114 1114 1114 1111 1111 1111 1111 1111 1111 1111 1111 1111 1111 1111 1111 1111 1107 1107 1107 1107 1107 1107 1107 1104 1104 1100 1100 1100 1100 1100 1100 1100 1100 1104 1104 1104 1104 1104 1100 1100 1100 1100 1100 1100 1100 1100 1100 1100 1100 1100 1100 1100 1100 1100 1100 1100 1100 1097 1100 1097 1097 1097 1097 1093 1093 1097 1093 1093 1093 1093 1093 1093 1093 1093 1093 1093 1093 1093 1093 1093 1093 1093 1093 1090 1090 1090 1090 1090 1086 1086 1086 1086 1086 1086 1086 1086 1086 1083 1083 1083 1083 1083 1083 1083 1079 1079 1079 1079 1079 1076 1076 1076 1076 1076 1076 1076 1076 1076 1079 1079 1079 1079 1076 1076 1076 1073 1073 1073 1073 1073 1073 1073 1069 1069 1069 1069 1069 1069 1069 1069 1069 1069 1069 1069 1069 1066 1066 1066 1066 1066 1066 1066 1066 1066 1066 1063 1063 1063 1063 1063 1063 1063 1063 1063 1066 1063 1063 1063 1060 1060 1060 1060 1060 1056 1060 1060 1060 1060 1060 1056 1056 1056 1056 1060 1056 1060 1056 1056 1060 1060 1060 1056 1056 1056 1056 1056 1056 1056 1056 1056 1056 1056 1056 1056 1056 1056 1056 1053 1053 1053 1053 1053 1050 1050 1050 1050 1050 1047 1047 1047 1047 1047 1047 1047 1047 1047 1047 1047 1047 1047 1047 1047 1047 1047 1047 1047 1047 1044 1044 1044 1044 1044 1044 1044 1044 1044 1047 1044 1044 1047 1044 1044 1044 1044 1040 1040 1040 1040 1037 1037 1037 1037 1037 1037 1037 1037 1037 1037 1037 1034 1037 1034 1034 1034 1034 1034 1034 1034 1034 1034 1034 1034 1031 1031 1031 1031 1031 1031 1031 1031 1031 1031 1028 1028 1028 1025 1025 1025 1028 1028 1031 1031 1031 1034 1034 1034 1034    0    0    0    0    0    0    0    0    0    0    0    0    0    0    0    0    0    0    0    0    0  978  978  978  978  978  978 1025 1025 1025    0    0    0    0    0    0 1013 1013 1013 1013 1010 1013 1013 1013 1013 1013 1016 1016 1016 1016 1016 1016 1016 1016 1013 1013 1013 1013 1013 1013 1010 1010 1013 1013 1010 1010 1010 1010 1010 1010 1010 1010 1007 1010 1010 1010 1010 1010 1007 1007 1010 1010 1010 1007 1007 1007 1007 1007 1007 1004 1004 1004 1004 1004 1004 1004 1004 1004 1004 1004 1004 1004 1004 1004 1004 1004 1004 1001 1001 1001  998  998  998  998  998  998  995  995  995  995  995  995  993  993  993  993  993  993  993  993  993  993  993  993  993  993  993  993  993  995  993  993  990  990  990  987  987  987  987  987  987  987  987  987  987  984  987  984  984  984  984  984  984  984  984  984  984  984  984  981  981  981  984  981  981  981  981  981  981  978  978  978  978  978  978  978  978  978  978  976  976  976  976  976
