1140 1140 1140 1136 1136 1136 1136 1136 1136 1133 1136 1136 1136 1136 1140 1140 1140 1144 1140 1140 1140 1140 1140 1140 1140 1140 1140 1140 1144 1144 1144 1140 1140 1140 1140 1140 1140 1140 1140 1140 1140 1140 1136 1140 1136 1136 1136 1136 1136 1136 1140 1136 1136 1136 1136 1136 1133 1133 1129 1129 1129 1129 1129 1129 1129 1129 1129 1129 1129 1129 1125 1125 1125 1125 1125 1125 1125 1125 1125 1125 1129 1129 1125 1129 1125 1125 1129 1125 1125 1125 1125 1125 1122 1122 1122 1122 1122 1122 1122 1122 1122 1118 1125 1125 1118 1118 1118 1118 1114 1118 1114 1114 1114 1114 1114 1114 1114 1114 1114 1114 1114 1114 1114 1114 1114 1114 1111 1111 1111 1111 1111 1107 1107 1107 1107 1104 1107 1104 1104 1107 1107 1107 1107 1104 1104 1107 1107 1107 1107 1107 1107 1107 1107 1107 1107 1107 1107 1104 1104 1104 1104 1104 1104 1104 1104 1104 1104 1104 1104 1104 1104 1104 1104 1104 1104 1104 1100 1100 1100 1097 1097 1097 1097 1097 1093 1093 1093 1093 1093 1093 1093 1093 1093 1093 1093 1093 1093 1093 1093 1093 1093 1090 1090 1090 1086 1090 1086 1086 1086 1086 1090 1093 1093 1093 1093 1090 1093 1090 1090 1090 1090 1086 1086 1086 1083 1083 1083 1083 1083 1083 1083 1083 1083 1083 1083 1083 1083 1083 1079 1083 1083 1083 1079 1079 1079 1079 1079 1079 1079 1076 1076 1076 1076 1076 1076 1076 1076 1076 1076 1073 1073 1069 1069 1069 1069 1069 1069 1069 1069 1069 1069 1069 1069 1069 1069 1069 1069 1069 1069 1069 1069 1069 1069 1069 1069 1066 1066 1066 1069 1066 1063 1063 1063 1063 1066 1066 1063 1063 1063 1060 1063 1060 1060 1060 1060 1060 1063 1060 1060 1060 1056 1056 1056 1056 1056 1056 1056 1056 1056 1056 1056 1056 1056 1056 1056 1056 1056 1056 1056 1056 1056 1056 1056 1056 1056 1056 1056 1053 1053 1053 1050 1050 1053 1053 1053 1056 1053 1053 1053 1053 1053 1053 1050 1050 1050 1053 1050 1050 1050 1050 1050 1050 1050 1050 1050 1047 1047 1047 1044 1044 1044 1047 1047 1047 1044 1044 1047 1047 1047 1047 1047 1050 1050 1050 1050 1050    0    0    0    0    0    0    0    0    0    0    0    0    0    0    0    0  978  978  978  978  978  981  981  984  981  981  981    0    0    0    0    0    0 1001 1001 1001 1004 1001 1001 1001 1004 1004 1004 1004 1004 1010 1010 1007 1010 1007 1010 1010  998  998  998  998  990  990  990  990  990  987  990  990  990    0    0    0    0    0    0    0    0    0    0    0    0 1022 1019 1019 1016 1016 1019 1019 1019 1019 1019 1022 1022 1019 1019 1019 1019 1019 1019 1016 1016 1016 1016 1016 1016 1016 1016 1016 1016 1016 1016 1016 1016 1016 1016 1016 1016 1013 1013 1013 1010 1010 1010 1007 1007 1007 1007 1007 1007 1007 1007 1007 1007 1007 1007 1007 1007 1007 1007 1004 1007 1004 1004 1004 1001 1001 1001 1001 1001 1001 1001 1001  998  998  998  995  998 1001  998  998 1001  998  998  998  998  998  998  998  998  998  998  998  995  995  995  995  995  995  995  995  995  993  993  993  993  993  993  993  993  993  993  993  990  993  993  993  993  990  990  990  990  990  990  990  987  990  990  990  990  990  990  987  990  987  987
1140 1140 1136 1136 1136 1136 1136 1136 1136 1133 1136 1136 1136 1136 1140 1140 1140 1140 1140 1140 1140 1140 1136 1136 1140 1140 1140 1140 1140 1140 1140 1140 1140 1140 1140 1140 1140 1140 1136 1140 1136 1136 1136 1136 1133 1136 1136 1136 1136 1136 1136 1136 1136 1136 1133 1133 1133 1129 1129 1129 1125 1129 1129 1129 1129 1129 1129 1129 1129 1129 1129 1125 1125 1125 1125 1125 1125 1125 1125 1125 1129 1125 1125 1129 1125 1125 1125 1125 1125 1125 1125 1122 1122 1122 1122 1122 1122 1122 1118 1118 1118 1118 1118 1118 1118 1118 1118 1114 1114 1114 1114 1114 1114 1114 1114 1114 1114 1114 1114 1114 1114 1114 1114 1114 1111 1111 1111 1111 1111 1111 1111 1107 1107 1107 1107 1104 1107 1107 1107 1107 1107 1107 1107 1104 1107 1107 1107 1107 1107 1107 1107 1107 1107 1107 1107 1107 1107 1104 1104 1104 1104 1104 1104 1104 1104 1104 1104 1104 1104 1104 1104 1100 1104 1104 1104 1100 1100 1100 1100 1100 1100 1097 1097 1097 1093 1093 1093 1093 1093 1093 1093 1093 1093 1093 1093 1093 1093 1093 1093 1093 1093 1090 1090 1090 1086 1090 1086 1086 1086 1090 1090 1093 1093 1093 1093 1090 1090 1086 1090 1086 1086 1086 1086 1086 1083 1083 1083 1083 1083 1083 1083 1083 1083 1083 1083 1083 1083 1083 1083 1083 1083 1083 1083 1079 1079 1079 1079 1079 1079 1076 1076 1076 1076 1076 1076 1076 1076 1076 1076 1073 1073 1073 1069 1069 1069 1069 1069 1069 1069 1069 1069 1069 1069 1069 1069 1069 1069 1069 1069 1069 1069 1069 1069 1069 1069 1066 1066 1066 1063 1063 1063 1060 1063 1063 1063 1063 1063 1063 1063 1060 1063 1060 1060 1060 1060 1060 1060 1060 1060 1056 1056 1056 1056 1056 1056 1056 1056 1056 1060 1060 1056 1056 1056 1060 1060 1060 1060 1060 1056 1056 1056 1056 1056 1056 1056 1056 1056 1053 1053 1053 1053 1050 1053 1053 1053 1053 1053 1053 1053 1053 1053 1053 1050 1050 1050 1050 1050 1050 1050 1050 1050 1050 1050 1050 1050 1047 1047 1047 1047 1047 1047 1047 1047 1047 1044 1044 1044 1044 1047 1044 1047 1047 1047 1050 1050 1050    0    0    0    0    0    0    0    0    0    0    0    0    0    0    0  978  978  978  978  978  978  984  984  984  981  981  981    0    0    0    0    0    0 1001 1001 1001 1004 1001 1001 1001 1004 1004 1004 1004 1004 1007 1007 1007 1007 1007 1007 1004  998  998  998  995  987  987  990  990  990  990  987  990  990  990    0    0    0    0    0    0    0    0    0    0    0 1022 1019 1019 1016 1016 1019 1019 1019 1019 1019 1019 1022 1019 1019 1019 1019 1019 1019 1016 1016 1016 1016 1016 1016 1016 1016 1016 1016 1016 1016 1016 1016 1016 1016 1016 1016 1016 1013 1013 1010 1010 1010 1007 1007 1007 1007 1007 1007 1007 1007 1007 1007 1007 1007 1007 1007 1007 1007 1004 1004 1004 1004 1004 1001 1001 1001 1001 1001 1001  998  998  998  998  995  995  995  998  998  998  998  998  998  998  998  998  998  998  998  998  998  998  995  995  995  995  995  995  995  995  995  995  993  993  995  993  995  993  993  995  993  993  990  990  990  990  993  990  987  990  990  990  990  990  987  990  990  990  990  990  990  990  990  990  987
1140 1140 1136 1136 1136 1136 1136 1136 1136 1136 1136 1136 1136 1136 1140 1140 1140 1140 1140 1140 1136 1136 1136 1136 1140 1140 1136 1140 1140 1140 1140 1140 1140 1140 1140 1140 1140 1140 1136 1136 1136 1136 1136 1136 1136 1136 1136 1136 1136 1136 1136 1136 1136 1136 1136 1133 1133 1133 1129 1129 1129 1129 1125 1129 1129 1129 1129 1129 1129 1129 1125 1125 1125 1125 1125 1125 1129 1125 1125 1125 1129 1125 1125 1125 1125 1125 1125 1125 1125 1125 1125 1122 1122 1122 1122 1118 1122 1122 1118 1122 1122 1118 1118 1118 1118 1118 1118 1118 1114 1118 1118 1114 1114 1114 1114 1114 1114 1114 1114 1114 1114 1114 1114 1114 1111 1111 1111 1107 1107 1107 1107 1111 1111 1107 1107 1111 1107 1107 1107 1107 1107 1107 1107 1107 1107 1107 1107 1107 1107 1107 1107 1107 1107 1107 1104 1107 1107 1104 1104 1104 1104 1104 1104 1104 1104 1104 1104 1104 1104 1104 1100 1100 1100 1100 1100 1100 1100 1097 1097 1097 1097 1097 1097 1097 1093 1093 1093 1093 1093 1093 1093 1093 1093 1093 1093 1093 1093 1093 1093 1093 1093 1090 1090 1090 1086 1086 1086 1086 1086 1090 1086 1093 1093 1093 1093 1090 1090 1086 1090 1086 1086 1086 1086 1086 1083 1083 1083 1083 1083 1083 1083 1083 1083 1083 1083 1083 1083 1083 1079 1083 1083 1083 1083 1083 1079 1079 1079 1079 1076 1076 1076 1073 1073 1076 1073 1073 1073 1073 1073 1073 1069 1073 1073 1069 1069 1069 1069 1069 1069 1069 1069 1069 1069 1069 1069 1069 1069 1069 1069 1069 1069 1069 1069 1069 1069 1069 1066 1066 1063 1063 1063 1060 1060 1063 1063 1063 1063 1063 1060 1060 1060 1060 1060 1060 1060 1060 1060 1060 1060 1056 1056 1056 1056 1056 1056 1056 1056 1056 1056 1056 1056 1056 1056 1060 1060 1060 1060 1060 1060 1056 1056 1056 1056 1056 1056 1056 1056 1053 1053 1053 1053 1053 1053 1053 1053 1053 1053 1050 1053 1050 1050 1050 1050 1050 1050 1050 1050 1050 1050 1050 1050 1050 1050 1050 1050 1047 1047 1047 1047 1047 1047 1047 1047 1047 1044 1044 1044 1044 1044 1044 1044 1047 1047 1047 1050 1050    0    0    0    0    0    0    0    0    0    0    0    0    0    0  978  978  978  981  978  978  978  981  981  981  978  981  978  981  970    0    0    0    0    0 1001 1001 1004 1001 1001 1001 1001    0    0    0 1004 1004 1007 1007 1007 1007 1007 1004 1001  998  998  995  993  990  990  990  990  990  990  990  990  990  990  990    0    0    0    0    0    0    0    0    0 1019 1022 1022 1019 1019 1019 1019 1019 1019 1019 1022 1022 1019 1019 1019 1019 1019 1019 1016 1016 1016 1016 1016 1016 1016 1016 1016 1016 1016 1016 1016 1013 1013 1013 1013 1013 1013 1010 1010 1010 1010 1007 1007 1007 1007 1007 1007 1007 1007 1007 1007 1007 1007 1007 1007 1007 1007 1004 1004 1004 1004 1004 1004 1001 1001 1001  998  998  998  998  998  995  995  995  995  995  998  998  998  998  998  998  998  998  998  998  998  998  998  998  998  998  995  998  995  995  995  995  995  995  993  995  993  993  993  993  993  993  995  993  993  993  993  993  993  993  993  990  990  990  990  990  990  987  987  990  990  990  990  990  987  990  987  987
1136 1136 1136 1136 1136 1136 1136 1136 1136 1136 1136 1136 1136 1136 1140 1140 1140 1140 1140 1136 1136 1136 1133 1133 1136 1136 1136 1136 1136 1136 1140 1140 1140 1140 1140 1140 1140 1140 1136 1136 1136 1136 1136 1136 1136 1133 1136 1133 1133 1133 1133 1133 1133 1133 1133 1133 1133 1133 1129 1129 1125 1129 1129 1129 1129 1129 1129 1129 1129 1129 1125 1125 1125 1125 1125 1125 1125 1125 1125 1125 1129 1125 1129 1129 1125 1125 1125 1125 1125 1125 1125 1122 1122 1118 1122 1122 1122 1122 1118 1118 1118 1118 1118 1118 1118 1118 1118 1118 1118 1114 1114 1114 1114 1114 1114 1114 1114 1114 1114 1114 1114 1114 1114 1114 1111 1111 1111 1111 1107 1111 1107 1111 1111 1107 1107 1111 1107 1107 1107 1107 1107 1111 1107 1107 1107 1107 1107 1107 1107 1107 1107 1107 1107 1107 1104 1107 1104 1104 1104 1104 1104 1104 1104 1104 1104 1104 1104 1104 1104 1104 1100 1100 1100 1100 1100 1100 1100 1100 1100 1097 1097 1097 1097 1097 1093 1093 1093 1093 1093 1093 1093 1093 1093 1093 1093 1093 1093 1093 1093 1090 1090 1090 1090 1090 1086 1086 1086 1086 1086 1086 1086 1093 1093 1093 1093 1090 1090 1083 1086 1086 1086 1086 1083 1083 1083 1083 1083 1083 1083 1083 1083 1083 1083 1083 1083 1083 1083 1079 1079 1079 1083 1083 1083 1079 1079 1079 1079 1079 1076 1076 1076 1076 1076 1073 1073 1073 1073 1073 1073 1073 1069 1069 1073 1069 1069 1069 1069 1069 1069 1069 1069 1069 1069 1069 1069 1069 1069 1069 1069 1069 1069 1069 1069 1069 1069 1069 1066 1063 1063 1066 1063 1063 1063 1063 1063 1063 1063 1063 1063 1060 1060 1060 1060 1060 1060 1060 1060 1060 1060 1056 1056 1056 1056 1056 1060 1056 1056 1056 1056 1056 1056 1056 1056 1060 1060 1060 1060 1060 1060 1056 1056 1056 1056 1056 1056 1056 1053 1053 1053 1053 1053 1050 1053 1053 1053 1053 1050 1050 1050 1050 1050 1050 1050 1050 1050 1050 1050 1050 1050 1050 1050 1050 1050 1050 1047 1047 1047 1047 1047 1047 1047 1047 1047 1047 1047 1044 1044 1044 1044 1044 1047 1047 1047 1050 1050 1050    0    0    0    0    0    0    0    0    0    0    0    0    0    0  984  981  981  984  981  981  981  981  981  978  976  976  973  970  962  962    0    0    0    0    0 1004 1004 1004 1001 1001    0    0    0    0    0    0 1004 1004 1007 1007 1004 1001  998  995  998  990  990  990  990  990  990  990  990  990  990  990  990  990  990    0    0    0    0    0    0    0    0 1022 1025 1022 1022 1019 1019 1019 1019 1019 1019 1022 1022 1022 1019 1019 1019 1019 1019 1016 1016 1016 1016 1016 1016 1016 1016 1016 1016 1016 1016 1016 1016 1016 1013 1013 1016 1013 1010 1010 1010 1010 1007 1007 1007 1007 1007 1007 1007 1007 1007 1007 1007 1007 1007 1007 1007 1004 1004 1004 1004 1004 1004 1004 1001 1001 1001 1001 1001 1001  998  998  998  998  995  995  995  998  998  998  998  998  998  998  998  998  998  998  998  998  998  998  998  998  998  998  998  995  995  995  995  995  995  993  995  993  995  993  993  995  995  993  993  995  993  993  995  993  990  990  990  990  990  990  990  987  987  987  987  987  987  987  987  987  987
1136 1136 1136 1136 1136 1136 1136 1136 1136 1136 1136 1136 1136 1136 1140 1140 1140 1140 1140 1136 1136 1136 1136 1136 1136 1133 1133 1136 1136 1136 1136 1140 1136 1140 1140 1140 1140 1140 1136 1136 1136 1136 1136 1136 1133 1133 1133 1133 1133 1133 1133 1133 1133 1133 1133 1129 1129 1129 1129 1129 1129 1129 1129 1129 1129 1129 1129 1129 1129 1125 1125 1125 1125 1125 1125 1125 1125 1125 1125 1125 1129 1125 1125 1129 1125 1125 1125 1125 1122 1122 1122 1122 1122 1118 1122 1122 1122 1118 1118 1118 1118 1118 1114 1114 1114 1114 1114 1114 1114 1114 1114 1114 1114 1114 1114 1114 1114 1114 1114 1114 1114 1114 1114 1114 1111 1111 1111 1107 1107 1107 1107 1111 1107 1107 1111 1111 1111 1111 1111 1111 1111 1111 1107 1107 1107 1107 1107 1107 1107 1107 1107 1107 1107 1107 1104 1107 1104 1104 1104 1104 1104 1104 1104 1104 1104 1104 1104 1104 1104 1104 1100 1100 1100 1100 1100 1100 1100 1100 1100 1097 1097 1097 1097 1097 1093 1093 1093 1093 1093 1093 1093 1093 1093 1093 1093 1093 1093 1090 1090 1093 1090 1090 1090 1086 1086 1086 1083 1086 1086 1086 1086 1090 1090 1090 1093 1090 1090 1086 1086 1086 1086 1086 1083 1086 1083 1083 1083 1083 1083 1083 1083 1083 1079 1083 1083 1083 1083 1079 1083 1083 1083 1083 1083 1083 1079 1079 1079 1079 1079 1076 1076 1076 1076 1073 1073 1073 1073 1073 1073 1073 1073 1073 1073 1069 1069 1069 1069 1069 1069 1069 1066 1066 1069 1066 1066 1066 1069 1069 1069 1069 1069 1069 1069 1069 1069 1066 1066 1066 1066 1066 1063 1063 1063 1063 1063 1063 1063 1063 1060 1060 1060 1060 1060 1060 1060 1060 1060 1060 1060 1056 1056 1056 1056 1056 1056 1056 1056 1056 1056 1056 1056 1056 1060 1060 1060 1060 1060 1053 1053 1056 1056 1056 1056 1056 1056 1056 1053 1053 1053 1053 1053 1050 1053 1053 1053 1053 1050 1050 1050 1050 1050 1050 1050 1050 1050 1050 1050 1050 1050 1050 1050 1050 1050 1047 1047 1047 1047 1047 1044 1047 1047 1047 1047 1047 1044 1044 1044 1044 1044 1044 1047 1047 1047 1050 1050 1050 1050    0    0    0    0    0    0    0    0    0    0    0    0  987  987  984  984  984  981  984  981  981  978  976  973  973  970  968  965  965  962  962    0    0    0    0 1001 1001    0    0    0    0    0    0    0 1004 1004 1004 1007 1007 1004 1001  998  995  998  998  993  993  990  993  990  990  990  990  990  990  990  990  990  993  993    0    0    0    0    0    0 1022 1025 1025 1022 1019 1019 1019 1019 1019 1019 1022 1022 1019 1019 1019 1019 1019 1019 1019 1019 1016 1016 1016 1016 1016 1016 1016 1016 1016 1016 1016 1016 1016 1016 1016 1016 1016 1013 1013 1010 1010 1010 1007 1007 1007 1007 1007 1007 1007 1007 1007 1007 1007 1007 1007 1007 1004 1004 1004 1004 1004 1004 1001 1001 1001 1001  998 1001  998  998  998  995  995  995  995  995  998  998  998  998  998  998  998  998  998  998  995  995  998  998  998  998  998  998  998  995  995  995  995  995  993  995  993  993  993  993  993  993  995  995  993  993  995  993  995  995  993  993  990  990  990  990  990  990  987  987  987  987  987  987  987  987  987  987
1136 1136 1136 1136 1136 1136 1136 1136 1136 1136 1136 1136 1136 1136 1140 1140 1140 1140 1136 1136 1136 1136 1133 1133 1136 1133 1133 1133 1133 1136 1136 1136 1136 1136 1136 1136 1136 1136 1133 1136 1136 1133 1136 1136 1133 1133 1133 1133 1133 1133 1133 1133 1133 1133 1133 1133 1129 1129 1129 1129 1129 1125 1129 1129 1129 1129 1129 1129 1125 1129 1125 1125 1125 1125 1125 1125 1125 1125 1125 1125 1125 1125 1125 1129 1125 1125 1125 1125 1122 1122 1122 1122 1118 1118 1118 1118 1118 1118 1118 1118 1118 1118 1118 1118 1118 1118 1114 1114 1118 1114 1114 1114 1114 1114 1114 1114 1114 1114 1114 1114 1114 1114 1114 1114 1107 1111 1111 1107 1107 1107 1107 1107 1107 1107 1111 1111 1111 1111 1111 1107 1107 1107 1107 1104 1104 1107 1111 1107 1107 1107 1107 1107 1107 1107 1104 1107 1107 1107 1107 1104 1104 1104 1104 1104 1104 1104 1104 1104 1104 1104 1104 1100 1100 1100 1100 1097 1097 1097 1093 1093 1093 1093 1097 1097 1093 1093 1093 1093 1093 1093 1093 1093 1093 1093 1093 1093 1093 1090 1090 1090 1090 1090 1090 1086 1086 1086 1083 1086 1086 1086 1086 1090 1090 1090 1090 1090 1090 1086 1086 1086 1086 1086 1086 1086 1086 1086 1083 1083 1083 1083 1083 1083 1079 1083 1083 1079 1079 1079 1079 1079 1079 1079 1079 1079 1079 1079 1079 1079 1079 1076 1076 1076 1076 1073 1073 1073 1073 1073 1073 1073 1073 1073 1073 1069 1069 1069 1069 1069 1069 1069 1066 1066 1066 1066 1066 1066 1069 1069 1069 1069 1069 1069 1069 1069 1066 1066 1066 1066 1063 1066 1063 1063 1063 1063 1063 1063 1063 1063 1063 1063 1063 1063 1063 1060 1060 1060 1060 1060 1060 1056 1056 1056 1056 1056 1056 1056 1056 1056 1056 1056 1056 1056 1056 1060 1056 1060 1056 1053 1053 1056 1056 1056 1056 1056 1056 1056 1053 1053 1053 1053 1050 1050 1053 1053 1053 1050 1050 1050 1050 1050 1050 1050 1050 1050 1050 1050 1050 1050 1050 1050 1050 1047 1047 1047 1047 1047 1047 1044 1044 1047 1047 1047 1047 1047 1044 1044 1044 1044 1040 1040 1044 1047 1047 1050 1050 1050 1050    0    0    0    0    0    0    0    0    0    0    0  987  987  987  984  984  984  984  984  981  976  973  970  970  968  968  965  962  962  962  962  962    0    0    0    0    0    0    0    0    0    0    0 1019 1004 1004 1007 1010 1007 1007 1004 1001 1001 1001 1001  998  993  990  990  990  990  990  990  990  990  990  993  993  993 1013 1013    0    0    0    0    0 1025 1028 1022 1022 1019 1019 1019 1019 1019 1019 1022 1019 1019 1019 1019 1019 1019 1019 1019 1019 1019 1016 1016 1016 1016 1016 1016 1013 1016 1016 1016 1016 1016 1013 1013 1016 1013 1013 1013 1010 1010 1010 1010 1007 1007 1007 1007 1007 1007 1007 1007 1007 1007 1007 1004 1004 1004 1004 1004 1004 1004 1004 1004 1004 1001 1001 1001 1001 1001  998  995  995  995  995  995  995  998  998  998  998  998  998  998  998  998  998  998  998  998  998  998  998  998  998  998  998  995  995  995  995  995  995  993  993  993  993  993  993  995  995  993  993  995  993  993  995  993  993  993  990  990  990  987  987  987  987  987  987  987  987  987  987  987  987
1133 1133 1136 1136 1136 1136 1133 1136 1136 1136 1136 1136 1136 1136 1140 1140 1140 1140 1136 1136 1133 1133 1133 1133 1133 1133 1133 1133 1133 1133 1136 1136 1136 1136 1136 1136 1136 1136 1133 1136 1136 1133 1133 1136 1133 1133 1133 1133 1133 1133 1133 1133 1133 1133 1133 1129 1129 1129 1129 1129 1129 1125 1129 1129 1129 1129 1125 1125 1125 1125 1125 1125 1125 1125 1125 1125 1122 1125 1125 1125 1125 1125 1125 1125 1125 1125 1125 1122 1122 1122 1122 1122 1122 1118 1118 1118 1118 1118 1118 1118 1118 1118 1114 1118 1118 1118 1114 1114 1114 1114 1114 1114 1114 1114 1114 1114 1114 1114 1114 1114 1114 1114 1114 1111 1111 1111 1111 1107 1107 1107 1111 1111 1111 1111 1111 1111 1111 1111 1111 1107 1107 1107 1107 1104 1107 1107 1107 1107 1107 1107 1107 1107 1107 1107 1104 1107 1107 1104 1104 1104 1104 1104 1104 1104 1104 1104 1104 1104 1104 1104 1100 1100 1100 1097 1097 1093 1093 1093 1093 1093 1093 1093 1093 1093 1093 1093 1093 1093 1093 1093 1093 1093 1093 1093 1093 1093 1093 1093 1090 1093 1090 1090 1090 1086 1086 1086 1083 1086 1086 1086 1086 1090 1090 1090 1090 1090 1090 1086 1086 1086 1086 1086 1083 1086 1086 1083 1083 1083 1083 1083 1083 1079 1079 1083 1079 1079 1079 1079 1079 1079 1079 1079 1079 1079 1079 1079 1079 1079 1079 1076 1076 1076 1076 1076 1073 1076 1076 1076 1073 1073 1073 1073 1073 1069 1069 1069 1069 1069 1069 1069 1066 1066 1066 1066 1066 1066 1069 1069 1069 1069 1069 1069 1069 1066 1066 1066 1066 1063 1063 1063 1063 1063 1063 1063 1063 1063 1063 1060 1060 1060 1060 1060 1060 1060 1060 1060 1060 1060 1060 1060 1060 1056 1056 1060 1056 1056 1056 1056 1056 1056 1056 1056 1056 1060 1056 1060 1053 1053 1053 1050 1056 1056 1056 1053 1056 1053 1053 1053 1053 1050 1050 1050 1050 1050 1050 1050 1050 1050 1050 1050 1050 1050 1050 1050 1050 1050 1050 1047 1047 1047 1047 1047 1047 1047 1047 1047 1047 1044 1044 1047 1044 1044 1044 1044 1044 1044 1044 1044 1040 1040 1044 1044 1044 1047 1050 1050 1050    0    0    0    0    0    0    0    0    0    0  968  987  987  987  984  976  973  973  968  970  970  970  968  968  968  965  965  962  962  962  962  962  962    0    0    0    0    0    0    0    0 1025 1028 1019 1019 1019 1013 1013 1010 1010 1007 1007 1004 1004 1004 1004 1004  993  993  993  993  990  990  990  990  990  993  993 1013 1013 1019 1016    0    0    0    0 1019 1019 1019 1019 1019 1019 1019 1019 1019 1019 1019 1019 1019 1019 1019 1019 1019 1019 1019 1019 1019 1019 1016 1016 1016 1016 1016 1016 1016 1016 1016 1016 1013 1013 1013 1013 1013 1010 1010 1010 1010 1010 1007 1007 1007 1007 1007 1007 1007 1007 1007 1007 1004 1004 1004 1004 1004 1004 1004 1004 1004 1004 1004 1004 1004 1004 1001 1001 1001  998  995  995  995  995  995  995  998  998  998  998  998  998  998  995  995  995  995  995  998  998  998  998  998  998  998  998  998  995  995  995  995  995  993  993  993  993  993  993  993  993  993  993  995  993  995  995  995  993  993  990  990  990  987  987  987  987  987  987  987  990  987  987  987  987
1133 1133 1133 1136 1136 1133 1133 1136 1136 1133 1133 1133 1133 1133 1140 1136 1136 1136 1133 1133 1133 1133 1129 1129 1136 1136 1133 1133 1133 1133 1133 1133 1133 1133 1136 1133 1136 1136 1136 1136 1136 1136 1136 1136 1133 1133 1133 1136 1133 1133 1129 1133 1129 1133 1129 1129 1129 1129 1129 1129 1129 1125 1129 1129 1129 1129 1125 1125 1125 1125 1125 1125 1125 1125 1125 1125 1125 1125 1125 1125 1129 1129 1125 1125 1125 1125 1125 1125 1122 1122 1122 1122 1118 1118 1118 1118 1118 1118 1118 1118 1118 1118 1114 1114 1118 1118 1114 1114 1114 1114 1114 1114 1114 1114 1114 1114 1114 1114 1114 1114 1114 1114 1114 1111 1107 1111 1111 1107 1107 1111 1111 1111 1111 1107 1107 1107 1107 1107 1107 1107 1107 1104 1107 1107 1107 1111 1107 1107 1107 1107 1107 1107 1107 1104 1104 1107 1107 1104 1107 1107 1104 1104 1104 1104 1104 1104 1104 1104 1104 1100 1100 1100 1100 1097 1097 1093 1093 1093 1093 1093 1093 1093 1093 1093 1093 1093 1093 1093 1093 1093 1093 1093 1093 1093 1093 1093 1093 1093 1090 1093 1093 1090 1090 1086 1086 1086 1086 1086 1086 1086 1086 1090 1090 1090 1090 1090 1090 1086 1086 1086 1086 1083 1083 1086 1086 1083 1083 1083 1083 1083 1083 1079 1079 1083 1083 1083 1079 1079 1083 1079 1079 1079 1079 1079 1079 1079 1079 1079 1079 1076 1079 1076 1076 1076 1076 1076 1076 1076 1073 1073 1073 1069 1069 1069 1069 1069 1069 1069 1069 1069 1066 1066 1066 1066 1066 1066 1069 1069 1069 1069 1069 1069 1069 1066 1066 1063 1063 1063 1063 1063 1063 1063 1063 1063 1063 1063 1063 1060 1060 1060 1060 1060 1060 1060 1060 1060 1060 1060 1060 1060 1060 1060 1056 1060 1056 1056 1056 1056 1056 1056 1056 1056 1060 1060 1056 1060 1053 1053 1053 1050 1056 1056 1053 1053 1053 1053 1050 1050 1050 1050 1050 1050 1050 1050 1050 1050 1050 1050 1050 1050 1050 1050 1050 1050 1050 1047 1047 1047 1047 1047 1047 1047 1047 1047 1047 1047 1047 1044 1044 1044 1044 1044 1044 1044 1044 1044 1044 1040 1040 1040 1040 1044 1044 1044 1047 1047 1050    0    0    0    0    0    0    0    0    0  959  968  968  984  990  970  970  968  968  968  965  968  968  968  968  968  965  965  962  962  962  962  962  962    0    0    0    0    0    0    0 1028 1028 1025 1025 1019 1019 1016 1016 1013 1010 1010 1007 1004 1004 1004 1004 1004  998  998  998  998  987  987  987  990  993  993  995 1013 1013 1019 1016    0    0    0    0 1019 1019 1016 1019 1016 1016 1019 1019 1019 1019 1019 1019 1019 1019 1019 1019 1019 1019 1019 1019 1019 1019 1016 1016 1016 1016 1016 1016 1016 1016 1016 1016 1016 1013 1013 1013 1013 1010 1010 1010 1010 1010 1010 1010 1007 1007 1007 1007 1007 1007 1007 1004 1004 1004 1004 1004 1004 1004 1004 1004 1004 1004 1004 1004 1004 1004 1001 1001 1001  998  998  995  995  995  995  995 1001  998  998  998  998  998  998  995  995  995  995  995  998  995  998  998  998  998  998  998  998  995  995  995  995  995  993  993  993  993  993  993  993  993  993  993  993  993  993  993  993  993  993  990  990  987  987  987  984  987  987  987  987  987  987  987  987  987
1129 1133 1133 1133 1129 1129 1129 1133 1133 1129 1129 1133 1136 1133 1140 1136 1136 1133 1133 1129 1129 1129 1129 1129 1129 1129 1133 1133 1133 1133 1133 1133 1133 1133 1133 1133 1133 1136 1136 1133 1133 1133 1133 1133 1133 1133 1133 1136 1133 1133 1133 1133 1129 1129 1129 1129 1129 1129 1129 1129 1129 1125 1125 1125 1129 1125 1125 1125 1125 1129 1129 1125 1125 1125 1125 1125 1122 1125 1125 1125 1129 1125 1125 1125 1125 1125 1125 1129 1129 1122 1122 1122 1118 1118 1118 1118 1118 1118 1118 1118 1118 1118 1114 1114 1114 1114 1114 1114 1118 1114 1114 1114 1114 1114 1114 1114 1114 1114 1114 1114 1114 1114 1114 1114 1111 1111 1111 1111 1107 1111 1107 1107 1111 1111 1107 1107 1107 1107 1107 1107 1107 1107 1104 1104 1104 1107 1107 1107 1107 1107 1107 1107 1107 1104 1104 1104 1104 1104 1104 1104 1104 1104 1104 1104 1104 1104 1104 1104 1104 1100 1100 1100 1100 1097 1097 1093 1093 1093 1093 1093 1093 1093 1093 1093 1093 1093 1093 1093 1093 1093 1093 1093 1093 1093 1093 1093 1093 1093 1090 1093 1090 1090 1090 1086 1086 1086 1083 1086 1083 1086 1083 1090 1090 1090 1090 1086 1086 1086 1086 1086 1086 1083 1083 1083 1086 1083 1083 1083 1083 1083 1083 1079 1079 1083 1079 1079 1079 1079 1083 1079 1079 1079 1079 1079 1079 1079 1079 1076 1076 1076 1076 1076 1076 1076 1073 1076 1073 1076 1069 1069 1069 1069 1069 1069 1069 1069 1069 1066 1066 1069 1069 1069 1069 1066 1066 1066 1069 1069 1069 1069 1069 1069 1069 1066 1066 1066 1066 1066 1063 1063 1063 1063 1063 1063 1063 1063 1063 1060 1060 1060 1060 1060 1060 1060 1060 1060 1060 1060 1060 1060 1060 1060 1060 1060 1056 1056 1056 1056 1056 1056 1056 1056 1056 1056 1056 1056 1056 1053 1053 1053 1050 1056 1053 1053 1053 1053 1050 1050 1053 1053 1050 1050 1050 1050 1050 1050 1050 1050 1050 1050 1050 1050 1050 1050 1050 1047 1047 1047 1047 1047 1047 1047 1047 1047 1047 1047 1047 1047 1044 1047 1044 1044 1044 1044 1044 1044 1040 1040 1040 1040 1040 1044 1044 1047 1047 1050 1056    0    0    0    0    0    0  962  962  962  959  965  968  968  968  968  968  965  965  965  965  965  968  965  965  968  965  965  965  965  962  962  962  962  962    0    0    0    0 1028 1028 1028 1025 1025 1025 1019 1019 1016 1016 1013 1010 1010 1010 1007 1007 1004 1004 1004 1004 1004 1001 1001  998  990  990  993  995  995 1016 1013 1016 1019 1016 1016    0    0    0 1019 1019 1019 1019 1019 1016 1019 1019 1019 1019 1019 1019 1019 1019 1019 1019 1019 1019 1019 1019 1019 1019 1016 1016 1016 1016 1016 1016 1016 1016 1016 1016 1013 1013 1013 1013 1013 1010 1010 1007 1010 1010 1010 1010 1007 1007 1007 1007 1007 1007 1007 1004 1004 1004 1004 1004 1004 1004 1004 1004 1004 1004 1004 1004 1004 1001 1001 1001 1001  998  998  995  995  995  995  995 1001  998  998  998  998  998  995  995  998  995  998  995  998  995  998  998  998  998  998  998  998  998  995  995  995  995  993  993  993  993  993  993  993  993  993  993  993  993  993  993  993  993  993  993  990  990  987  987  987  987  987  987  987  987  987  987  987  987
1125 1129 1129 1125 1129 1129 1129 1133 1129 1129 1129 1129 1133 1133 1136 1136 1133 1129 1133 1129 1129 1129 1129 1129 1129 1129 1129 1129 1133 1129 1129 1129 1133 1133 1133 1136 1133 1136 1136 1136 1136 1136 1136 1136 1136 1133 1136 1136 1133 1133 1129 1129 1129 1129 1129 1129 1129 1129 1129 1129 1125 1125 1125 1125 1125 1125 1125 1129 1129 1125 1129 1129 1125 1125 1125 1125 1125 1125 1125 1125 1129 1129 1129 1129 1125 1125 1125 1129 1129 1122 1122 1118 1118 1118 1118 1118 1118 1118 1118 1118 1118 1114 1114 1114 1118 1114 1114 1114 1118 1114 1114 1114 1114 1114 1114 1114 1114 1114 1114 1114 1114 1114 1114 1114 1111 1111 1111 1111 1107 1111 1111 1111 1111 1111 1107 1107 1107 1107 1107 1107 1104 1104 1104 1104 1104 1107 1107 1107 1107 1107 1107 1104 1107 1104 1104 1104 1104 1104 1104 1104 1104 1104 1104 1104 1104 1104 1104 1100 1104 1100 1100 1100 1097 1097 1097 1097 1097 1097 1093 1093 1093 1093 1097 1093 1093 1093 1093 1093 1093 1093 1093 1093 1093 1093 1093 1093 1093 1093 1090 1090 1090 1090 1090 1090 1086 1086 1086 1086 1086 1086 1083 1086 1086 1086 1090 1086 1086 1086 1086 1086 1083 1083 1083 1086 1086 1086 1086 1083 1083 1083 1083 1083 1079 1079 1079 1079 1079 1079 1079 1079 1079 1079 1079 1079 1079 1079 1079 1076 1076 1076 1076 1076 1073 1073 1073 1073 1073 1073 1073 1073 1073 1069 1069 1069 1069 1069 1069 1069 1066 1069 1069 1069 1069 1069 1066 1066 1069 1069 1069 1069 1069 1066 1066 1066 1066 1066 1066 1066 1063 1063 1063 1063 1063 1063 1063 1063 1063 1060 1060 1060 1060 1060 1060 1060 1060 1060 1060 1060 1060 1060 1060 1060 1056 1060 1056 1056 1056 1056 1056 1056 1056 1056 1056 1056 1056 1056 1056 1053 1053 1053 1053 1053 1053 1053 1053 1053 1050 1050 1050 1050 1050 1050 1050 1050 1050 1050 1050 1050 1050 1050 1050 1050 1050 1050 1050 1047 1047 1047 1047 1047 1047 1047 1047 1047 1044 1047 1047 1044 1044 1047 1044 1044 1044 1044 1044 1044 1040 1040 1040 1040 1040 1044 1044 1047 1047 1050 1056 1050    0    0    0    0  965  965  962  962  965  965  968  968  968  968  968  965  965  965  962  965  965  965  965  965  965  965  965  965  962  962  962  962  962  962    0    0    0 1028 1028 1025 1025 1025 1022 1019 1019 1016 1013 1013 1010 1010 1010 1010 1004 1013 1007 1007 1004 1007 1004 1001 1001 1001 1001 1004 1013 1010 1016 1016 1016 1016 1016    0    0    0    0    0 1016 1016 1019 1016 1016 1019 1019 1019 1019 1019 1019 1019 1019 1019 1019 1019 1019 1019 1019 1019 1019 1019 1019 1016 1016 1016 1016 1016 1016 1016 1016 1013 1013 1013 1013 1010 1010 1010 1007 1007 1010 1007 1010 1007 1007 1007 1007 1007 1007 1007 1007 1004 1004 1004 1004 1004 1004 1004 1004 1004 1004 1004 1004 1004 1001 1001 1001 1001  998  998  995  995  995  998  998 1001  998  998  998  998  998  995  995  995  995  995  995  995  995  995  998  995  998  995  998  998  998  995  995  995  995  993  993  993  993  993  993  993  993  993  993  993  993  993  993  993  993  993  993  990  990  987  987  987  987  987  987  987  987  987  987  987  987
1125 1125 1125 1125 1125 1125 1125 1129 1129 1125 1125 1129 1125 1125 1129 1129 1129 1129 1133 1129 1129 1129 1129 1129 1129 1129 1129 1129 1129 1129 1129 1129 1133 1133 1136 1133 1133 1136 1136 1133 1133 1133 1133 1133 1133 1133 1136 1136 1136 1133 1129 1129 1129 1129 1129 1129 1129 1129 1129 1125 1125 1125 1125 1125 1125 1125 1125 1125 1122 1122 1129 1125 1125 1125 1125 1125 1122 1125 1125 1125 1129 1129 1129 1129 1125 1125 1125 1125 1129 1122 1118 1118 1118 1118 1118 1118 1118 1118 1118 1118 1118 1118 1114 1114 1114 1114 1114 1114 1114 1114 1114 1114 1114 1114 1114 1114 1114 1114 1114 1114 1114 1114 1114 1114 1111 1111 1111 1111 1111 1111 1111 1111 1111 1111 1111 1107 1111 1107 1107 1107 1107 1107 1104 1104 1104 1107 1107 1107 1107 1107 1107 1107 1107 1104 1104 1104 1104 1104 1104 1104 1104 1104 1104 1104 1104 1104 1100 1100 1100 1100 1100 1100 1100 1097 1097 1097 1097 1097 1097 1093 1093 1093 1093 1093 1093 1093 1093 1093 1093 1093 1093 1093 1093 1093 1093 1093 1093 1093 1090 1090 1090 1090 1090 1090 1086 1086 1086 1086 1086 1086 1083 1086 1086 1086 1090 1086 1086 1086 1086 1086 1083 1083 1083 1083 1086 1086 1083 1083 1083 1083 1083 1079 1079 1079 1079 1079 1079 1079 1079 1079 1079 1079 1076 1076 1079 1079 1079 1076 1076 1076 1076 1076 1073 1073 1073 1073 1073 1073 1069 1069 1069 1069 1069 1069 1069 1069 1066 1066 1066 1066 1066 1066 1066 1069 1069 1066 1069 1069 1069 1069 1069 1066 1066 1066 1066 1063 1063 1066 1063 1063 1063 1063 1063 1063 1063 1063 1063 1060 1060 1060 1060 1060 1060 1060 1060 1060 1060 1060 1060 1060 1060 1060 1056 1060 1056 1056 1056 1056 1056 1056 1056 1056 1056 1056 1056 1056 1056 1053 1053 1053 1050 1053 1053 1053 1053 1053 1050 1050 1050 1050 1050 1050 1050 1050 1050 1050 1050 1050 1050 1050 1050 1050 1047 1047 1047 1047 1047 1047 1047 1047 1047 1047 1047 1047 1047 1047 1047 1044 1044 1047 1044 1044 1044 1044 1044 1040 1040 1040 1037 1037 1040 1040 1044 1044 1047 1050 1060 1050 1056  968  968  965  965  962  962  962  962  965  965  965  965  965  965  965  965  962  962  965  965  965  965  965  965  965  965  962  962  962  962  962  962  959  959  959 1028 1028 1028 1025 1025 1025 1022 1019 1016 1016 1016 1013 1013 1013 1010 1010 1013 1007 1004 1004 1004 1013 1010 1007 1007 1013 1022 1016 1019 1016 1016 1016 1019 1016 1016 1016    0    0    0    0 1016 1016 1016 1016 1016 1016 1016 1016 1016 1019 1019 1019 1019 1019 1019 1019 1019 1019 1019 1019 1019 1019 1019 1016 1016 1016 1016 1016 1016 1016 1016 1013 1013 1013 1013 1013 1010 1010 1007 1007 1010 1007 1007 1007 1007 1007 1007 1007 1007 1007 1007 1004 1004 1004 1004 1004 1004 1004 1004 1004 1007 1004 1004 1004 1004 1004 1001 1001 1001  998  998  998  998  995  995  998  998  998  998  998  998  995  995  995  995  995  995  995  995  995  995  995  995  995  995  995  995  995  995  993  993  993  993  993  993  993  993  993  993  993  990  993  993  993  993  990  993  993  990  990  987  987  987  987  987  987  987  987  990  987  987  987  987
1125 1125 1125 1125 1125 1125 1125 1125 1125 1125 1125 1125 1125 1129 1133 1133 1129 1129 1129 1129 1129 1129 1125 1125 1125 1125 1129 1129 1129 1129 1129 1129 1133 1129 1136 1136 1129 1129 1129 1129 1129 1129 1133 1133 1133 1133 1133 1136 1136 1133 1129 1129 1129 1129 1129 1129 1129 1129 1129 1129 1125 1125 1125 1125 1125 1125 1125 1122 1122 1122 1122 1122 1122 1125 1122 1122 1122 1125 1125 1125 1129 1129 1129 1129 1125 1125 1125 1125 1122 1122 1118 1118 1118 1118 1118 1118 1118 1118 1118 1118 1118 1118 1114 1114 1114 1114 1114 1114 1114 1114 1114 1114 1114 1114 1114 1114 1114 1114 1114 1114 1114 1111 1111 1111 1111 1111 1111 1111 1107 1111 1111 1111 1111 1111 1111 1111 1111 1107 1107 1104 1104 1104 1104 1104 1104 1107 1107 1107 1107 1107 1107 1107 1107 1104 1104 1104 1104 1104 1104 1104 1104 1104 1104 1100 1100 1100 1100 1100 1100 1097 1100 1100 1097 1097 1097 1097 1097 1097 1097 1093 1093 1093 1093 1093 1093 1093 1093 1093 1093 1093 1093 1093 1097 1093 1093 1093 1093 1090 1090 1090 1090 1090 1090 1086 1086 1090 1086 1086 1086 1086 1083 1086 1086 1090 1086 1086 1086 1086 1086 1086 1086 1083 1083 1083 1083 1083 1083 1083 1083 1083 1079 1079 1079 1079 1079 1079 1083 1079 1083 1079 1079 1076 1076 1076 1076 1079 1079 1079 1076 1076 1076 1076 1073 1073 1073 1073 1069 1069 1069 1069 1069 1069 1069 1069 1069 1066 1066 1066 1066 1066 1066 1069 1069 1069 1069 1066 1069 1069 1069 1069 1069 1066 1066 1066 1066 1063 1063 1063 1063 1063 1063 1063 1063 1060 1060 1060 1060 1060 1060 1060 1056 1060 1060 1060 1060 1060 1060 1060 1060 1060 1060 1060 1056 1060 1056 1056 1056 1056 1056 1056 1056 1056 1056 1056 1056 1056 1053 1056 1053 1053 1053 1053 1053 1053 1053 1053 1053 1050 1050 1050 1050 1050 1050 1050 1050 1050 1050 1050 1050 1050 1050 1050 1047 1047 1047 1047 1047 1047 1047 1047 1047 1047 1047 1047 1044 1047 1047 1044 1044 1044 1044 1044 1044 1040 1040 1040 1040 1040 1040 1037 1040 1040 1040 1044 1044 1047 1056 1066  968  968  968  968  965  965  965  965  962  965  965  965  965  965  965  965  965  962  962  965  965  965  965  965  965  965  965  962  962  962  965  965  962  959  957  959 1028 1028 1025 1025 1025 1022 1019 1016 1016 1013 1016 1013 1013 1013 1013 1013 1013 1025 1025 1025 1025 1016 1016 1013 1016 1022 1022 1019 1019 1016 1019 1019 1019 1016 1016 1016    0    0    0    0 1016 1016 1016 1016 1016 1016 1016 1016 1016 1019 1019 1019 1019 1019 1019 1019 1019 1019 1019 1019 1019 1019 1019 1016 1016 1016 1016 1016 1016 1016 1016 1013 1013 1013 1013 1013 1010 1010 1010 1010 1010 1010 1007 1007 1007 1007 1007 1007 1007 1007 1007 1004 1004 1004 1004 1004 1004 1004 1004 1004 1004 1004 1004 1004 1004 1004 1001 1001  998  995  995  995  995  995  995  998  998  998  998  998  998  995  995  998  995  995  995  995  995  995  995  995  995  995  995  995  995  995  993  993  993  993  993  993  993  993  993  993  993  990  990  993  993  993  993  990  990  993  990  990  990  987  987  987  987  987  987  987  990  990  987  987  990
1125 1125 1125 1125 1122 1125 1125 1122 1125 1122 1125 1125 1129 1125 1129 1129 1129 1129 1129 1125 1125 1125 1125 1125 1125 1125 1125 1129 1129 1129 1129 1129 1129 1129 1133 1129 1129 1129 1129 1129 1129 1129 1133 1133 1133 1133 1133 1136 1133 1133 1129 1129 1129 1129 1129 1125 1129 1129 1129 1125 1125 1125 1125 1125 1125 1125 1125 1125 1125 1122 1122 1122 1125 1125 1125 1125 1122 1125 1125 1125 1129 1125 1129 1125 1125 1125 1125 1125 1122 1122 1118 1118 1118 1118 1118 1118 1118 1118 1118 1118 1118 1118 1118 1118 1114 1114 1118 1114 1114 1114 1114 1114 1114 1114 1114 1114 1114 1114 1114 1114 1114 1111 1111 1111 1111 1111 1111 1107 1107 1111 1111 1111 1111 1111 1111 1107 1107 1104 1104 1104 1104 1104 1104 1104 1104 1107 1107 1107 1107 1107 1107 1107 1107 1104 1104 1104 1104 1104 1104 1104 1104 1104 1104 1100 1100 1104 1100 1100 1100 1097 1100 1100 1097 1097 1097 1097 1097 1097 1097 1093 1093 1093 1093 1093 1093 1093 1093 1093 1093 1093 1093 1093 1093 1093 1093 1093 1093 1090 1090 1090 1090 1090 1090 1090 1086 1086 1086 1086 1086 1083 1083 1086 1086 1086 1086 1086 1086 1086 1086 1086 1086 1083 1083 1083 1083 1083 1083 1083 1083 1083 1083 1079 1079 1079 1079 1079 1083 1079 1083 1079 1076 1079 1076 1076 1079 1079 1079 1079 1079 1076 1076 1076 1073 1073 1073 1069 1069 1069 1069 1069 1069 1069 1066 1069 1069 1066 1066 1066 1066 1066 1066 1069 1066 1069 1069 1069 1069 1069 1069 1069 1069 1066 1066 1066 1066 1063 1063 1066 1060 1063 1063 1063 1063 1060 1060 1060 1060 1060 1060 1060 1060 1060 1060 1060 1060 1060 1060 1056 1060 1060 1060 1060 1056 1056 1056 1056 1056 1056 1056 1056 1056 1056 1056 1056 1053 1053 1053 1053 1053 1053 1053 1053 1053 1053 1053 1053 1053 1050 1050 1050 1050 1050 1050 1050 1050 1050 1050 1050 1050 1050 1050 1050 1047 1047 1047 1047 1047 1047 1047 1047 1047 1044 1044 1047 1047 1047 1047 1047 1044 1047 1047 1044 1044 1044 1044 1040 1040 1040 1040 1037 1040 1040 1040 1040 1040 1047 1053 1053  968  968  968  968  965  965  965  962  962  962  962  965  965  965  965  965  962  962  962  965  965  962  962  962  965  965  962  962  962  962  962  962  959  959  959  957  959 1025 1025 1025 1022 1019 1016 1016 1016 1013 1013 1013 1010 1013 1013 1016 1016 1025 1025 1025 1025 1025 1019 1019 1019 1022 1022 1019 1019 1016 1019 1019 1019 1016 1019    0    0    0    0    0 1016 1016 1016 1016 1016 1016 1016 1016 1016 1019 1019 1019 1019 1016 1016 1019 1016 1016 1016 1016 1016 1016 1016 1016 1016 1016 1016 1016 1016 1016 1013 1013 1013 1010 1010 1010 1010 1007 1007 1007 1007 1007 1007 1007 1007 1007 1007 1007 1007 1007 1007 1004 1004 1004 1004 1004 1004 1004 1004 1004 1004 1004 1004 1004 1004 1004 1001 1001  998  995  995  995  995  995  995  995  998  995  998  998  998  995  995  995  995  995  995  995  995  995  995  995  995  995  995  995  995  995  993  993  993  993  993  993  993  993  993  993  993  990  990  990  990  990  990  990  990  990  990  990  990  990  990  987  987  987  987  987  990  990  987  987  990
1125 1125 1122 1122 1122 1122 1122 1122 1125 1122 1122 1125 1125 1125 1129 1129 1129 1129 1125 1125 1125 1125 1125 1125 1125 1122 1125 1125 1125 1129 1129 1129 1129 1129 1129 1129 1129 1129 1129 1129 1129 1129 1133 1133 1133 1133 1133 1133 1133 1129 1129 1129 1129 1129 1129 1129 1125 1129 1125 1125 1125 1125 1125 1125 1125 1125 1125 1125 1125 1122 1125 1125 1122 1122 1125 1122 1122 1125 1125 1125 1125 1125 1125 1125 1125 1125 1122 1122 1118 1122 1118 1118 1118 1118 1118 1118 1118 1118 1118 1118 1118 1118 1114 1114 1114 1114 1114 1114 1114 1114 1114 1114 1114 1114 1114 1114 1114 1114 1114 1114 1114 1111 1111 1111 1111 1111 1111 1107 1107 1107 1111 1107 1107 1111 1107 1107 1107 1104 1104 1104 1104 1104 1104 1104 1104 1107 1107 1107 1107 1107 1107 1107 1107 1104 1104 1104 1104 1104 1104 1104 1104 1104 1104 1104 1100 1104 1100 1100 1100 1097 1100 1100 1097 1097 1097 1097 1097 1097 1097 1093 1093 1097 1093 1093 1093 1093 1093 1093 1093 1093 1093 1090 1090 1090 1090 1090 1090 1090 1090 1090 1090 1090 1090 1086 1086 1086 1086 1086 1086 1086 1086 1086 1086 1086 1086 1086 1086 1086 1086 1083 1086 1083 1083 1083 1083 1083 1083 1083 1083 1083 1079 1079 1079 1079 1079 1079 1079 1079 1079 1079 1079 1079 1076 1076 1079 1079 1076 1079 1079 1076 1076 1076 1073 1073 1073 1073 1069 1069 1069 1069 1069 1069 1066 1069 1066 1066 1066 1066 1066 1069 1069 1069 1069 1069 1069 1066 1069 1069 1069 1066 1066 1066 1066 1066 1066 1066 1063 1066 1066 1063 1063 1063 1063 1063 1060 1060 1060 1060 1060 1060 1060 1060 1060 1060 1060 1060 1060 1056 1060 1060 1060 1060 1056 1060 1056 1056 1056 1056 1056 1056 1056 1056 1056 1056 1053 1056 1053 1053 1053 1053 1053 1053 1053 1053 1053 1053 1053 1053 1050 1050 1050 1050 1050 1050 1050 1050 1050 1050 1050 1050 1047 1047 1047 1047 1047 1047 1047 1044 1047 1044 1047 1044 1044 1047 1047 1047 1047 1047 1044 1047 1044 1044 1044 1040 1040 1040 1040 1040 1040 1037 1040 1040 1044 1044 1040 1044 1053 1053  970  968  968  965  965  965  962  962  962  962  962  965  965  965  965  965  962  962  962  965  962  962  962  962  962  962  962  962  959  962  962  962  959  959  959  959  959  959  959 1016 1016 1016 1016 1013 1013 1010 1010 1010 1010 1013 1016 1019 1016 1022 1025 1025 1028 1025 1022 1019 1019 1019 1022 1019 1019 1016 1019 1019 1019 1016 1019    0    0    0    0    0 1016 1016 1013 1016 1016 1016 1016 1016 1016 1019 1019 1016 1019 1016 1016 1016 1016 1016 1016 1016 1016 1016 1016 1016 1016 1016 1016 1016 1013 1013 1013 1010 1010 1010 1010 1010 1007 1007 1007 1007 1007 1007 1007 1007 1007 1007 1007 1007 1007 1007 1007 1007 1004 1004 1004 1004 1004 1004 1004 1004 1004 1004 1004 1004 1001 1001 1001  998  998  995  995  995  995  995  995  995  998  995  995  998  995  995  995  995  995  995  995  995  995  995  995  995  995  995  995  995  995  995  995  995  993  993  993  993  993  993  993  993  993  990  990  990  990  993  990  990  990  990  990  990  990  990  990  990  987  990  990  990  990  990  990  990  990
1125 1125 1122 1122 1122 1122 1122 1122 1122 1122 1122 1122 1122 1125 1129 1129 1125 1125 1125 1125 1125 1125 1125 1125 1125 1122 1125 1125 1125 1125 1129 1129 1129 1129 1129 1129 1129 1129 1129 1129 1129 1129 1129 1129 1129 1129 1129 1133 1129 1129 1129 1129 1125 1129 1129 1129 1129 1129 1129 1125 1129 1125 1125 1125 1125 1125 1125 1125 1125 1125 1125 1125 1122 1122 1125 1122 1122 1125 1122 1122 1125 1125 1125 1125 1125 1125 1122 1122 1118 1118 1118 1118 1118 1118 1118 1118 1122 1118 1118 1118 1118 1118 1114 1114 1114 1114 1118 1114 1114 1114 1114 1114 1114 1114 1114 1114 1114 1111 1114 1114 1111 1107 1107 1111 1107 1107 1107 1107 1107 1107 1107 1107 1107 1111 1107 1107 1107 1104 1104 1104 1104 1104 1104 1104 1104 1107 1107 1107 1107 1107 1107 1104 1104 1104 1104 1104 1104 1104 1104 1104 1104 1104 1104 1100 1100 1104 1100 1100 1100 1100 1100 1100 1097 1097 1097 1097 1097 1097 1097 1097 1097 1097 1097 1093 1093 1093 1093 1093 1093 1093 1093 1093 1090 1090 1090 1090 1090 1090 1090 1090 1086 1090 1086 1086 1086 1086 1086 1086 1086 1086 1086 1090 1086 1090 1086 1086 1086 1086 1086 1083 1083 1083 1083 1083 1083 1083 1083 1083 1083 1083 1079 1079 1079 1079 1079 1079 1083 1079 1079 1079 1079 1079 1079 1076 1076 1079 1076 1076 1076 1073 1076 1073 1073 1073 1073 1069 1069 1069 1069 1069 1069 1069 1069 1069 1069 1069 1066 1066 1066 1069 1069 1069 1069 1069 1069 1066 1069 1069 1069 1066 1066 1066 1066 1063 1066 1066 1063 1066 1066 1063 1063 1063 1063 1063 1063 1060 1060 1060 1060 1060 1060 1060 1060 1060 1060 1060 1060 1056 1060 1060 1060 1060 1056 1056 1056 1056 1056 1056 1056 1056 1056 1053 1056 1056 1056 1056 1056 1056 1056 1056 1056 1053 1056 1053 1053 1053 1053 1053 1053 1053 1050 1050 1053 1053 1050 1050 1050 1050 1050 1050 1047 1047 1047 1047 1047 1044 1044 1044 1044 1044 1044 1044 1044 1047 1047 1047 1047 1047 1047 1047 1044 1044 1044 1040 1040 1040 1040 1040 1040 1040 1040 1044 1044 1044 1044 1047 1053 1063  970  970  968  968  965  965  965  962  962  962  965  965  965  965  962  965  962  962  962  965  965  962  962  962  965  965  962  962  959  962  959  962  959  959  959  959  959  959  959 1025 1010 1010 1010 1010 1010 1007 1007 1007 1007 1010 1013 1016 1016 1022 1022 1028 1028 1028 1025 1022 1019 1019 1022 1019 1016 1016 1016 1019 1019 1016 1019    0    0    0    0    0    0 1016 1013 1016 1016 1016 1016 1016 1016 1019 1019 1019 1016 1016 1016 1016 1016 1016 1016 1016 1016 1016 1016 1016 1016 1016 1016 1013 1013 1013 1013 1013 1010 1010 1010 1010 1007 1007 1007 1007 1007 1007 1007 1007 1007 1007 1007 1007 1007 1007 1007 1007 1004 1004 1004 1004 1004 1004 1004 1004 1004 1004 1004 1004 1001 1001  998  998  998  995  995  995  995  995  995  995  995  995  995  998  995  995  995  995  995  995  995  995  995  995  995  995  995  995  995  995  995  995  995  995  993  993  993  993  993  990  993  990  993  990  990  990  990  990  990  990  990  990  990  990  990  990  990  990  987  987  987  990  990  990  987  987  990
1122 1122 1122 1122 1122 1122 1122 1122 1122 1122 1122 1122 1122 1122 1125 1129 1125 1125 1125 1125 1125 1125 1125 1125 1125 1125 1125 1125 1125 1125 1129 1125 1129 1125 1125 1125 1125 1125 1129 1129 1129 1129 1129 1129 1129 1129 1129 1129 1129 1129 1129 1129 1129 1129 1129 1125 1125 1125 1125 1129 1129 1129 1125 1125 1129 1129 1125 1125 1125 1125 1125 1125 1125 1125 1125 1125 1122 1122 1122 1122 1125 1125 1125 1125 1125 1122 1122 1122 1118 1118 1118 1118 1118 1118 1118 1118 1118 1118 1118 1118 1118 1118 1114 1114 1114 1114 1118 1118 1118 1118 1118 1114 1114 1114 1114 1114 1114 1111 1114 1114 1114 1111 1111 1111 1107 1111 1107 1107 1107 1107 1107 1107 1107 1111 1107 1107 1107 1104 1104 1104 1104 1104 1104 1104 1104 1107 1107 1107 1107 1107 1107 1104 1104 1104 1104 1104 1104 1104 1104 1104 1104 1104 1104 1100 1100 1104 1100 1100 1100 1100 1100 1100 1100 1097 1097 1097 1097 1097 1097 1093 1097 1097 1097 1093 1093 1093 1093 1093 1093 1093 1093 1093 1090 1090 1090 1090 1090 1090 1090 1090 1086 1086 1086 1086 1086 1086 1086 1086 1086 1086 1086 1086 1086 1086 1086 1086 1086 1083 1086 1086 1083 1083 1083 1083 1083 1083 1083 1083 1083 1083 1079 1079 1079 1079 1079 1079 1083 1079 1079 1079 1079 1079 1079 1076 1076 1079 1076 1076 1073 1073 1073 1073 1069 1069 1069 1069 1069 1069 1069 1069 1069 1069 1069 1069 1069 1069 1069 1066 1066 1066 1066 1069 1069 1069 1069 1066 1069 1069 1069 1069 1066 1066 1066 1066 1066 1066 1063 1066 1066 1063 1063 1063 1063 1063 1063 1060 1060 1060 1060 1060 1060 1060 1060 1060 1060 1060 1060 1056 1056 1060 1060 1056 1056 1056 1056 1056 1056 1056 1056 1056 1056 1053 1053 1056 1053 1053 1053 1053 1053 1053 1056 1053 1056 1056 1056 1053 1053 1053 1050 1050 1050 1050 1053 1053 1050 1050 1050 1050 1050 1050 1047 1047 1047 1047 1047 1044 1044 1044 1044 1044 1044 1044 1044 1047 1047 1047 1047 1047 1047 1047 1047 1047 1044 1040 1040 1040 1040 1040 1040 1040 1040 1044 1047 1044 1047 1050 1056  973  970  968  968  968  968  965  965  962  962  962  962  965  965  965  965  965  962  962  962  965  965  962  962  962  965  965  962  962  962  962  962  962  962  959  959  959  959  959  959 1007 1004 1004 1004 1004 1004 1004 1004 1004 1007 1010 1013 1016 1016 1022 1025 1028 1028 1028 1028 1025 1019 1022 1025 1019 1019 1016 1016 1019 1019 1016 1019    0    0    0    0    0    0    0 1016 1016 1016 1016 1016 1016 1016 1019 1019 1016 1016 1016 1016 1016 1016 1016 1016 1016 1016 1016 1016 1016 1013 1016 1013 1013 1013 1013 1013 1010 1013 1010 1010 1010 1007 1007 1007 1007 1007 1007 1007 1007 1007 1007 1007 1007 1007 1004 1007 1007 1004 1004 1004 1004 1004 1004 1004 1004 1001 1004 1001 1001 1001 1001  998  998  998  995  995  995  995  995  995  995  995  995  995  995  995  995  995  995  995  995  995  993  993  995  995  995  995  995  995  995  995  995  995  995  993  993  993  993  993  990  993  990  990  990  990  990  990  990  990  990  990  990  990  990  990  990  990  987  987  987  987  987  987  987  987  987  987
1122 1122 1122 1122 1118 1118 1118 1118 1122 1122 1122 1122 1122 1125 1125 1129 1125 1125 1125 1125 1125 1125 1118 1125 1122 1118 1125 1125 1125 1125 1125 1125 1125 1125 1125 1125 1125 1125 1125 1125 1125 1129 1129 1129 1129 1129 1129 1129 1129 1129 1129 1129 1129 1125 1125 1125 1125 1125 1125 1125 1129 1129 1129 1129 1129 1129 1125 1129 1129 1125 1125 1125 1125 1125 1125 1125 1122 1122 1122 1122 1125 1125 1125 1125 1122 1122 1122 1122 1118 1118 1118 1118 1118 1118 1118 1118 1118 1118 1118 1118 1118 1118 1118 1114 1114 1114 1118 1118 1114 1114 1114 1114 1114 1114 1114 1114 1114 1114 1114 1114 1114 1111 1107 1107 1107 1107 1107 1107 1107 1107 1111 1107 1111 1111 1111 1107 1107 1104 1104 1104 1104 1104 1104 1104 1104 1107 1107 1107 1107 1107 1107 1104 1107 1104 1104 1104 1104 1104 1104 1104 1104 1104 1104 1100 1100 1104 1100 1100 1100 1100 1100 1100 1100 1097 1097 1097 1097 1097 1097 1093 1097 1100 1097 1093 1093 1093 1093 1093 1093 1090 1093 1093 1093 1090 1090 1086 1090 1086 1086 1086 1086 1086 1086 1086 1086 1086 1086 1086 1086 1086 1086 1090 1086 1090 1086 1086 1086 1086 1083 1083 1083 1083 1083 1083 1083 1083 1083 1083 1079 1079 1079 1079 1079 1079 1079 1079 1079 1079 1079 1079 1079 1079 1076 1076 1076 1076 1076 1076 1076 1073 1073 1073 1069 1069 1069 1069 1069 1069 1069 1069 1069 1069 1069 1069 1069 1069 1069 1069 1069 1069 1066 1066 1069 1066 1069 1066 1069 1069 1069 1069 1066 1066 1063 1063 1066 1063 1063 1063 1063 1063 1063 1063 1063 1063 1063 1060 1060 1060 1060 1060 1060 1060 1060 1060 1060 1060 1056 1056 1056 1056 1056 1056 1056 1056 1056 1056 1056 1053 1056 1053 1056 1056 1053 1056 1056 1056 1053 1053 1053 1053 1056 1056 1056 1056 1056 1053 1053 1053 1053 1050 1050 1050 1053 1053 1050 1050 1050 1050 1050 1047 1047 1047 1047 1047 1047 1047 1047 1047 1047 1047 1047 1044 1044 1047 1047 1047 1047 1047 1047 1047 1047 1047 1044 1040 1040 1040 1040 1040 1040 1040 1040 1044 1044 1044 1047 1050  973  973  970  970  968  968  968  965  965  962  962  962  962  962  962  962  962  965  962  962  962  965  962  962  962  962  962  962  962  962  962  962  962  962  962  959  959  959  959  959 1007 1007 1007 1004 1004 1007 1004 1004 1004 1004 1007 1010 1013 1016 1016 1019 1022 1025 1025 1028 1028 1025 1025 1025 1025 1019 1016 1013 1013 1016 1019 1019    0    0    0    0    0    0    0    0 1016 1013 1016 1016 1016 1016 1016 1019 1019 1016 1016 1016 1016 1016 1016 1016 1016 1016 1016 1016 1016 1016 1013 1013 1013 1013 1013 1013 1013 1010 1010 1010 1010 1010 1007 1007 1007 1007 1007 1007 1007 1004 1004 1007 1007 1007 1007 1004 1004 1007 1004 1004 1004 1004 1004 1004 1004 1004 1001 1004 1001 1001 1001 1001 1001  998  998  995  995  995  995  995  993  995  995  995  995  998  995  995  995  995  995  995  995  993  993  993  995  995  995  995  995  995  995  995  995  995  993  993  993  993  990  990  990  990  990  990  990  990  990  990  987  990  987  990  990  990  990  987  987  987  987  987  987  987  987  987  987  987  990
1122 1118 1122 1118 1118 1118 1118 1122 1122 1118 1118 1118 1122 1122 1125 1125 1118 1125 1125 1125 1125 1118 1118 1118 1122 1118 1118 1122 1125 1125 1125 1125 1125 1122 1125 1122 1122 1125 1125 1125 1125 1125 1125 1125 1125 1125 1125 1125 1125 1125 1125 1125 1129 1125 1125 1125 1129 1125 1125 1129 1129 1129 1125 1125 1129 1129 1125 1125 1129 1125 1125 1125 1125 1125 1125 1122 1122 1122 1122 1118 1122 1122 1122 1122 1122 1118 1118 1122 1118 1118 1118 1118 1118 1118 1118 1118 1122 1118 1118 1118 1118 1118 1118 1114 1114 1114 1118 1118 1114 1114 1114 1114 1114 1114 1114 1114 1114 1114 1114 1114 1114 1111 1111 1107 1107 1107 1107 1107 1107 1107 1107 1107 1107 1111 1107 1107 1107 1104 1104 1104 1104 1104 1104 1104 1100 1104 1107 1107 1107 1107 1104 1104 1104 1104 1104 1104 1104 1104 1104 1104 1104 1104 1104 1104 1104 1104 1104 1104 1100 1100 1100 1100 1100 1097 1097 1097 1097 1097 1093 1093 1097 1097 1097 1093 1093 1093 1093 1093 1093 1090 1093 1093 1093 1090 1093 1093 1090 1086 1086 1086 1086 1086 1086 1086 1086 1086 1086 1086 1086 1086 1086 1090 1090 1090 1090 1086 1086 1086 1083 1083 1083 1083 1083 1083 1083 1083 1079 1079 1079 1079 1079 1079 1079 1079 1079 1079 1079 1079 1079 1079 1076 1076 1076 1079 1079 1079 1076 1076 1076 1073 1073 1073 1073 1073 1073 1073 1073 1069 1069 1069 1069 1069 1069 1069 1069 1069 1069 1069 1069 1069 1066 1066 1069 1066 1066 1066 1069 1069 1069 1069 1066 1066 1066 1063 1063 1063 1063 1063 1063 1063 1063 1063 1063 1063 1063 1063 1060 1060 1060 1060 1060 1060 1060 1060 1060 1056 1056 1056 1056 1056 1056 1056 1056 1056 1056 1056 1056 1053 1053 1053 1056 1053 1053 1053 1053 1053 1053 1053 1053 1053 1056 1056 1056 1056 1056 1056 1053 1053 1053 1050 1050 1050 1053 1050 1050 1050 1050 1050 1050 1050 1047 1047 1047 1047 1047 1047 1047 1044 1044 1047 1047 1044 1044 1047 1047 1047 1047 1047 1047 1047 1044 1047 1044 1044 1044 1040 1040 1040 1040 1037 1040 1044 1044 1044 1044 1047  973  973  970  970  968  968  968  965  965  962  962  962  962  962  962  962  962  962  962  962  962  965  962  962  962  962  962  962  962  962  962  962  962  962  962  959  959  959  959  959 1007 1007 1007 1004 1004 1004 1004 1004 1004 1004 1007 1013 1013 1016 1013 1016 1022 1022 1025 1028 1028 1025 1025 1025 1025 1025 1025 1019 1019 1016    0    0    0    0    0    0    0    0    0    0    0 1016 1016 1016 1016 1016 1016 1019 1016 1016 1016 1016 1016 1016 1016 1016 1016 1016 1016 1016 1016 1016 1013 1013 1013 1013 1013 1010 1013 1010 1010 1010 1010 1010 1007 1007 1007 1007 1007 1007 1007 1007 1007 1007 1007 1007 1007 1004 1004 1007 1004 1004 1004 1004 1004 1001 1001 1001  998 1001 1001 1001 1001 1001 1001  998  998  995  995  995  995  995  993  998  998  998  998  998  998  995  995  995  995  995  995  993  993  993  993  993  995  993  995  995  995  995  995  995  993  993  993  990  990  990  990  990  990  990  987  990  987  990  987  990  987  990  987  987  990  987  987  987  987  987  987  987  987  987  987  987  987
1118 1122 1122 1118 1118 1118 1118 1118 1122 1118 1118 1118 1118 1118 1118 1118 1114 1125 1118 1125 1125 1114 1114 1122 1122 1118 1118 1122 1125 1125 1125 1125 1125 1125 1122 1122 1122 1122 1125 1125 1125 1125 1125 1125 1125 1125 1125 1125 1125 1125 1125 1125 1125 1125 1125 1125 1125 1125 1125 1125 1125 1129 1125 1125 1125 1129 1125 1125 1125 1125 1125 1125 1125 1125 1125 1122 1122 1122 1122 1122 1122 1122 1122 1122 1122 1122 1118 1122 1118 1118 1118 1118 1118 1118 1122 1118 1122 1118 1118 1118 1118 1118 1118 1114 1114 1114 1118 1114 1114 1114 1114 1114 1114 1114 1114 1114 1114 1114 1114 1114 1114 1111 1107 1107 1107 1107 1107 1107 1107 1107 1107 1107 1107 1107 1107 1107 1107 1104 1104 1104 1104 1104 1104 1104 1100 1107 1107 1107 1107 1107 1104 1104 1104 1104 1104 1104 1104 1104 1104 1104 1104 1104 1104 1104 1100 1104 1100 1100 1100 1100 1100 1100 1100 1097 1097 1097 1097 1093 1093 1093 1093 1097 1097 1093 1093 1093 1093 1093 1090 1090 1090 1093 1090 1090 1090 1090 1090 1090 1090 1086 1086 1086 1086 1090 1086 1086 1086 1086 1086 1086 1083 1090 1090 1090 1086 1086 1086 1086 1086 1083 1083 1083 1083 1083 1079 1079 1079 1079 1079 1079 1079 1079 1079 1079 1079 1079 1079 1079 1079 1076 1076 1076 1079 1079 1076 1076 1076 1076 1073 1073 1073 1073 1073 1073 1069 1073 1069 1069 1069 1069 1069 1069 1069 1069 1069 1069 1069 1066 1066 1066 1066 1066 1066 1066 1066 1066 1069 1069 1069 1069 1066 1066 1066 1063 1066 1063 1063 1063 1063 1063 1063 1063 1063 1063 1063 1060 1060 1060 1060 1060 1060 1060 1060 1060 1060 1056 1056 1056 1056 1056 1056 1056 1056 1056 1056 1056 1056 1053 1053 1053 1053 1053 1053 1053 1053 1053 1053 1053 1053 1053 1053 1056 1056 1056 1053 1053 1053 1053 1053 1050 1050 1050 1050 1050 1050 1050 1050 1050 1050 1050 1050 1050 1047 1047 1047 1047 1047 1044 1044 1044 1047 1044 1044 1047 1044 1047 1047 1047 1047 1044 1044 1044 1044 1044 1040 1040 1040 1040 1040 1037 1037 1040 1040 1040 1040  976  973  970  970  970  968  968  965  965  965  962  962  962  959  959  959  959  962  962  962  962  962  962  962  959  959  959  959  962  962  962  959  962  962  962  962  962  962  962  965  962 1007 1007 1004 1004 1001 1001 1001 1001 1004 1004 1007 1010 1013 1016 1013 1016 1019 1022 1025 1028 1025 1025 1025    0    0    0    0    0    0    0    0    0    0    0    0    0    0    0    0    0    0 1016 1016 1016 1016 1016 1016 1016 1016 1016 1016 1016 1016 1016 1016 1016 1016 1016 1016 1016 1016 1013 1013 1013 1013 1013 1013 1013 1013 1010 1013 1010 1010 1010 1010 1010 1007 1007 1007 1007 1007 1007 1007 1007 1007 1007 1007 1004 1004 1004 1004 1004 1001 1001 1001 1001 1001 1001  998 1001 1001 1001 1001  998  998  998  998  995  995  995  993  993  993  998  998  998  998  998  998  995  995  995  995  995  995  993  993  993  993  993  993  993  993  995  995  995  995  995  993  993  993  993  990  990  990  990  990  987  987  987  987  987  987  987  987  990  987  987  990  987  987  987  987  987  987  987  987  987  987  987  987
1114 1114 1118 1111 1111 1118 1118 1118 1118 1114 1114 1114 1118 1114 1118 1114 1114 1118 1114 1114 1114 1114 1114 1114 1114 1114 1118 1118 1122 1125 1122 1125 1122 1125 1125 1122 1122 1122 1125 1125 1122 1125 1125 1125 1125 1125 1122 1125 1125 1125 1125 1125 1125 1125 1125 1125 1125 1125 1125 1125 1125 1129 1125 1125 1129 1125 1125 1125 1125 1125 1125 1125 1125 1125 1125 1122 1122 1122 1122 1118 1122 1122 1122 1122 1122 1122 1122 1122 1118 1118 1118 1118 1118 1122 1122 1118 1122 1118 1118 1118 1118 1118 1118 1118 1118 1118 1118 1118 1118 1114 1114 1114 1114 1114 1114 1114 1114 1114 1114 1114 1114 1111 1107 1107 1107 1107 1107 1107 1107 1107 1107 1107 1107 1107 1107 1107 1104 1104 1104 1104 1104 1104 1104 1104 1100 1107 1104 1107 1107 1104 1104 1104 1104 1104 1104 1104 1104 1104 1104 1104 1104 1104 1104 1104 1100 1104 1100 1100 1104 1100 1100 1100 1100 1097 1100 1097 1097 1097 1097 1093 1097 1097 1097 1097 1093 1093 1093 1093 1090 1090 1090 1090 1090 1090 1090 1090 1090 1086 1086 1086 1086 1086 1086 1086 1086 1086 1086 1086 1086 1086 1086 1090 1090 1090 1086 1086 1086 1086 1086 1083 1083 1083 1083 1083 1083 1079 1079 1079 1079 1079 1079 1079 1079 1079 1079 1079 1079 1079 1079 1079 1076 1076 1076 1076 1076 1076 1076 1073 1073 1073 1073 1073 1073 1073 1073 1073 1073 1073 1069 1073 1069 1069 1069 1069 1069 1069 1069 1066 1066 1066 1066 1066 1066 1066 1066 1066 1069 1069 1069 1066 1066 1066 1066 1063 1066 1066 1066 1063 1066 1066 1066 1063 1063 1063 1063 1063 1063 1063 1060 1060 1060 1060 1060 1060 1060 1056 1056 1056 1056 1056 1056 1056 1056 1056 1056 1056 1053 1053 1053 1053 1053 1056 1053 1053 1053 1053 1053 1053 1053 1053 1053 1053 1053 1053 1053 1053 1053 1053 1053 1050 1050 1050 1050 1050 1050 1050 1050 1050 1050 1050 1050 1050 1047 1050 1047 1047 1047 1047 1047 1047 1047 1044 1044 1047 1044 1047 1047 1044 1044 1044 1044 1044 1044 1044 1040 1040 1040 1040 1040 1037 1037 1037 1037 1037 1037  973  973  970  970  970  968  968  965  965  965  962  962  959  959  959  959  959  962  962  959  959  959  962  959  959  959  959  959  959  962  962  962  962  962  962  962  962  962  962  962  962 1004 1004 1004 1001 1001 1001 1001 1001 1004 1001 1004 1010 1013 1013 1013 1013 1016 1019 1022 1025 1025 1028    0    0    0    0    0    0    0    0    0    0    0    0    0    0    0    0    0    0    0    0 1016 1016 1016 1016 1013 1016 1016 1016 1016 1016 1016 1016 1016 1016 1016 1016 1016 1016 1013 1013 1010 1010 1013 1013 1013 1013 1013 1013 1013 1013 1010 1010 1007 1007 1007 1007 1007 1007 1007 1007 1007 1004 1004 1007 1007 1004 1004 1004 1004 1004 1001 1001 1001 1001 1001  998  998  998  998  998  998  998  998  998  998  995  995  995  995  993  993  998  998  998  998  998  998  998  995  995  995  995  995  993  993  993  993  993  993  993  993  993  995  995  993  993  993  993  990  990  990  990  990  987  987  987  987  987  987  987  987  987  987  987  987  987  987  987  987  987  987  987  987  987  987  987  987  987  987
1111 1114 1114 1111 1111 1114 1114 1114 1118 1114 1114 1114 1114 1114 1118 1114 1118 1118 1114 1114 1114 1114 1114 1114 1114 1114 1118 1122 1122 1125 1125 1125 1122 1125 1122 1122 1122 1122 1122 1122 1122 1125 1125 1125 1125 1125 1122 1122 1122 1125 1125 1125 1125 1125 1125 1125 1125 1125 1125 1125 1125 1129 1125 1125 1125 1125 1125 1125 1125 1125 1125 1125 1125 1125 1125 1122 1122 1122 1122 1122 1122 1122 1122 1122 1122 1122 1122 1122 1118 1118 1118 1118 1122 1122 1122 1118 1118 1118 1118 1118 1118 1118 1118 1118 1118 1118 1118 1118 1114 1114 1114 1114 1114 1114 1114 1114 1114 1114 1114 1111 1114 1111 1107 1107 1107 1107 1107 1107 1107 1107 1107 1107 1107 1107 1107 1104 1104 1104 1104 1104 1104 1104 1104 1100 1100 1104 1104 1104 1104 1104 1104 1104 1104 1104 1104 1104 1104 1104 1104 1104 1100 1100 1100 1100 1100 1104 1100 1100 1100 1100 1100 1100 1100 1097 1097 1097 1097 1093 1093 1093 1097 1097 1097 1097 1093 1093 1093 1093 1090 1090 1090 1090 1090 1090 1090 1090 1090 1090 1086 1086 1086 1086 1086 1086 1086 1086 1086 1086 1086 1086 1086 1090 1090 1090 1086 1086 1086 1086 1086 1083 1083 1083 1083 1079 1079 1079 1079 1079 1079 1079 1079 1079 1079 1079 1079 1079 1079 1079 1079 1079 1076 1076 1076 1076 1076 1076 1076 1073 1073 1073 1073 1073 1069 1069 1069 1073 1069 1069 1069 1069 1069 1069 1069 1069 1069 1069 1069 1069 1069 1066 1066 1066 1066 1066 1066 1066 1069 1069 1069 1066 1066 1066 1066 1063 1063 1063 1063 1063 1063 1063 1063 1063 1063 1063 1063 1063 1060 1060 1060 1060 1060 1060 1060 1060 1060 1056 1056 1056 1056 1056 1056 1056 1056 1056 1056 1056 1053 1053 1053 1053 1053 1053 1053 1053 1053 1053 1053 1053 1053 1053 1053 1053 1053 1053 1053 1050 1053 1053 1050 1050 1050 1050 1050 1050 1050 1050 1050 1050 1050 1050 1050 1050 1050 1050 1047 1047 1047 1047 1047 1047 1047 1047 1047 1047 1044 1044 1044 1044 1044 1044 1040 1044 1044 1044 1040 1040 1040 1040 1040 1037 1037 1037 1037 1037 1037  973  973  970  970  970  968  968  968  965  965  965  962  962  959  959  959  959  962  962  959  959  959  962  959  959  959  959  959  959  962  962  962  962  962  962  962  962  962  962  962  962  959 1001 1001 1001 1001 1001  998  998 1001  998 1001 1007 1010 1010 1007 1010 1007 1010 1013 1022 1025    0    0    0    0    0    0    0    0    0    0    0    0    0    0    0    0    0    0    0    0    0 1016 1016 1016 1016 1013 1016 1016 1016 1016 1016 1016 1016 1016 1016 1016 1016 1016 1016 1013 1013 1013 1013 1013 1013 1013 1013 1013 1013 1013 1010 1010 1010 1007 1007 1007 1007 1007 1007 1007 1007 1007 1007 1004 1007 1007 1004 1004 1004 1004 1004 1001 1001 1001 1001 1001  998  998  998  998  998  998  998  998  998  998  995  995  995  995  995  993  998  998  998  998  998  998  998  998  995  995  995  995  993  993  993  993  993  993  993  993  993  993  995  993  993  993  993  990  990  990  990  990  987  987  987  987  987  987  987  984  984  984  987  987  987  987  987  987  987  987  987  987  987  987  987  987  987  987
1111 1111 1111 1111 1111 1111 1114 1114 1114 1114 1114 1114 1114 1114 1118 1114 1118 1118 1114 1114 1114 1118 1114 1114 1118 1114 1118 1118 1122 1118 1118 1122 1122 1122 1122 1122 1122 1122 1122 1125 1122 1125 1125 1125 1125 1125 1122 1122 1122 1122 1125 1122 1125 1125 1125 1125 1125 1125 1125 1125 1125 1125 1125 1125 1125 1125 1125 1125 1125 1125 1125 1125 1125 1125 1125 1122 1122 1122 1122 1122 1122 1122 1122 1122 1122 1122 1122 1122 1122 1118 1122 1122 1122 1122 1122 1118 1118 1118 1118 1118 1118 1118 1118 1114 1118 1118 1118 1118 1114 1114 1114 1114 1114 1114 1114 1114 1114 1114 1114 1114 1114 1111 1107 1107 1107 1107 1107 1107 1107 1107 1107 1107 1107 1107 1107 1104 1104 1104 1104 1104 1104 1104 1104 1104 1100 1104 1104 1104 1104 1104 1104 1104 1104 1107 1104 1104 1104 1104 1104 1104 1100 1100 1100 1100 1100 1100 1100 1100 1100 1100 1100 1100 1100 1100 1100 1097 1097 1097 1097 1093 1097 1097 1097 1093 1093 1093 1093 1093 1093 1090 1090 1090 1090 1090 1090 1090 1090 1090 1086 1086 1086 1086 1086 1086 1086 1086 1086 1090 1086 1086 1083 1086 1090 1090 1086 1086 1086 1083 1086 1083 1083 1083 1083 1079 1079 1079 1079 1079 1079 1079 1079 1079 1079 1079 1079 1079 1079 1079 1076 1076 1076 1076 1076 1076 1076 1076 1076 1073 1073 1069 1069 1069 1069 1069 1069 1069 1069 1069 1069 1069 1069 1069 1069 1069 1069 1069 1069 1066 1066 1066 1066 1066 1066 1066 1066 1066 1069 1069 1069 1066 1066 1066 1066 1063 1063 1063 1063 1063 1063 1063 1063 1063 1063 1060 1060 1060 1060 1060 1060 1060 1060 1060 1060 1060 1056 1056 1056 1056 1056 1056 1056 1056 1053 1053 1053 1053 1053 1053 1053 1053 1053 1053 1053 1053 1053 1053 1053 1053 1053 1050 1050 1053 1050 1050 1050 1050 1050 1050 1050 1050 1050 1050 1050 1050 1050 1050 1050 1050 1050 1050 1050 1050 1050 1050 1047 1047 1047 1047 1047 1047 1047 1047 1047 1047 1044 1044 1044 1044 1044 1040 1040 1044 1044 1040 1040 1040 1040 1040 1040 1037 1037 1037 1037 1037 1037  973  973  973  973  973  970  968  968  965  965  962  962  962  959  959  959  959  959  959  959  959  959  962  962  959  959  962  962  962  962  962  962  962  962  962  962  962  959  959  959  959  959 1001 1001 1001 1001 1001 1001 1001 1001  998  998 1004 1004 1007 1004 1004  998 1001 1001  990  990    0    0    0    0    0    0    0    0    0    0    0    0    0    0    0    0    0    0    0    0    0    0 1016 1016 1016 1016 1019 1016 1016 1016 1016 1016 1016 1016 1016 1016 1016 1016 1016 1016 1013 1013 1013 1013 1013 1013 1013 1013 1013 1013 1013 1010 1010 1010 1010 1007 1007 1007 1007 1007 1007 1007 1007 1007 1007 1007 1004 1004 1004 1004 1004 1001 1001 1001 1001 1001  998  998  998 1001  998  998  998  998  998  998  995  995  995  995  995  995  998  998  998  998  998  998  998  998  995  995  995  993  993  993  993  993  993  993  993  993  993  993  993  993  990  990  990  990  987  987  987  987  987  987  987  984  984  984  984  984  984  984  984  984  987  987  987  987  987  987  987  987  987  984  987  987  987  987
1111 1111 1111 1111 1111 1111 1111 1114 1114 1114 1114 1114 1114 1114 1118 1114 1118 1118 1118 1114 1114 1114 1114 1114 1114 1114 1118 1118 1118 1118 1118 1118 1118 1122 1122 1122 1118 1122 1122 1122 1118 1122 1122 1125 1125 1122 1122 1122 1122 1122 1122 1122 1122 1125 1122 1125 1125 1125 1125 1125 1125 1125 1125 1125 1125 1125 1125 1122 1125 1125 1125 1125 1125 1125 1122 1122 1122 1122 1122 1118 1122 1122 1122 1122 1122 1122 1118 1122 1122 1118 1122 1118 1122 1122 1122 1118 1118 1118 1118 1118 1118 1118 1118 1114 1118 1118 1114 1114 1114 1114 1114 1114 1114 1114 1114 1114 1114 1114 1114 1114 1114 1111 1111 1107 1111 1107 1107 1107 1107 1107 1107 1107 1107 1107 1104 1104 1104 1104 1104 1104 1104 1104 1104 1104 1100 1104 1104 1104 1104 1104 1104 1104 1104 1104 1104 1104 1104 1104 1104 1104 1100 1100 1100 1100 1100 1100 1100 1100 1100 1100 1104 1104 1100 1100 1097 1097 1097 1093 1093 1093 1093 1093 1097 1093 1093 1093 1093 1093 1093 1090 1090 1090 1090 1090 1090 1090 1090 1090 1090 1090 1086 1090 1090 1086 1090 1086 1090 1090 1086 1083 1083 1090 1086 1086 1086 1086 1083 1083 1086 1083 1083 1083 1083 1079 1079 1079 1079 1079 1079 1079 1079 1079 1079 1079 1079 1076 1076 1076 1076 1076 1076 1076 1076 1076 1076 1076 1073 1073 1073 1069 1069 1069 1069 1069 1069 1069 1069 1069 1069 1069 1069 1069 1069 1069 1069 1069 1069 1066 1066 1066 1066 1066 1066 1066 1066 1066 1069 1069 1069 1066 1066 1066 1066 1063 1063 1063 1063 1063 1063 1063 1063 1060 1060 1060 1060 1060 1060 1060 1060 1060 1060 1060 1060 1056 1056 1056 1056 1056 1056 1056 1056 1056 1053 1053 1053 1053 1053 1053 1053 1053 1053 1053 1053 1053 1050 1053 1053 1053 1050 1050 1050 1050 1050 1050 1050 1050 1050 1050 1050 1047 1047 1047 1050 1050 1050 1050 1050 1050 1050 1050 1050 1050 1050 1050 1050 1047 1047 1047 1047 1047 1047 1047 1047 1044 1044 1044 1044 1044 1040 1040 1040 1044 1044 1040 1040 1040 1040 1040 1040 1037 1037 1037 1034 1037 1037  973  973  973  973  973  970  968  968  965  965  965  962  962  959  959  959  959  959  959  959  959  959  962  962  959  959  959  959  962  962  962  962  962  962  962  962  959  959  959  959  959  959  959 1004 1004 1001 1001 1001 1004 1004 1001 1001  987  987  998  998  995  993  995  993  990  981  981    0    0    0    0    0    0    0    0    0    0    0    0    0    0    0    0    0    0    0    0    0 1016 1016 1016 1016 1019 1016 1016 1016 1016 1016 1016 1016 1016 1016 1016 1016 1016 1016 1013 1013 1013 1013 1013 1013 1013 1013 1010 1010 1010 1010 1010 1010 1010 1007 1007 1007 1007 1007 1007 1007 1007 1007 1007 1007 1004 1004 1004 1004 1004 1001 1001 1001 1001 1001 1001  998 1001 1001 1001 1001  998  998  998  995  995  995  995  995  993  993  998  998  998  998  998  998  998  998  995  995  995  993  993  993  993  993  993  993  990  993  993  993  993  993  990  990  990  990  987  987  987  987  987  987  987  984  984  984  984  984  984  984  984  984  987  987  987  987  987  987  987  987  987  984  987  987  987  984
1111 1111 1111 1111 1111 1111 1111 1111 1111 1111 1111 1111 1111 1111 1114 1114 1114 1118 1114 1114 1114 1118 1118 1118 1114 1118 1118 1118 1122 1118 1118 1118 1118 1122 1122 1118 1118 1122 1122 1122 1122 1122 1122 1125 1125 1125 1122 1122 1122 1122 1122 1122 1122 1122 1122 1125 1125 1125 1125 1125 1125 1125 1125 1125 1125 1125 1125 1122 1125 1125 1125 1125 1125 1125 1122 1125 1122 1122 1118 1118 1122 1122 1122 1122 1122 1122 1122 1122 1122 1118 1118 1118 1118 1118 1122 1118 1118 1118 1118 1118 1118 1114 1114 1114 1114 1114 1114 1114 1118 1114 1114 1114 1114 1114 1114 1114 1114 1114 1114 1114 1111 1111 1111 1107 1111 1107 1107 1107 1107 1107 1107 1107 1107 1104 1104 1104 1104 1104 1104 1104 1100 1104 1104 1104 1104 1104 1104 1104 1104 1104 1104 1104 1104 1104 1104 1104 1104 1104 1104 1104 1100 1100 1100 1100 1100 1100 1100 1100 1100 1100 1100 1100 1097 1097 1097 1097 1097 1097 1097 1097 1093 1093 1097 1093 1093 1093 1093 1093 1093 1090 1090 1090 1090 1090 1090 1090 1090 1090 1090 1090 1090 1086 1090 1086 1090 1090 1090 1086 1086 1083 1083 1086 1086 1086 1086 1083 1086 1083 1083 1083 1083 1083 1083 1083 1079 1079 1079 1079 1079 1076 1079 1079 1076 1079 1076 1076 1076 1076 1076 1076 1076 1076 1076 1076 1073 1073 1073 1073 1073 1073 1073 1069 1069 1069 1069 1069 1069 1069 1069 1069 1069 1069 1069 1069 1069 1066 1066 1066 1066 1066 1066 1066 1066 1066 1066 1066 1066 1066 1066 1066 1066 1066 1063 1063 1063 1063 1063 1063 1063 1063 1060 1060 1060 1060 1060 1063 1060 1060 1060 1060 1060 1060 1060 1056 1056 1056 1056 1056 1056 1056 1056 1056 1056 1056 1056 1053 1053 1053 1053 1053 1053 1050 1050 1050 1050 1053 1053 1050 1050 1050 1050 1050 1050 1050 1050 1050 1050 1050 1050 1050 1047 1047 1050 1050 1050 1050 1050 1050 1050 1047 1050 1050 1047 1050 1047 1047 1047 1047 1047 1047 1047 1047 1047 1044 1044 1044 1044 1040 1040 1040 1040 1040 1040 1040 1040 1040 1040 1037 1037 1037 1037 1037 1034 1037 1037  973  973  973  973  973  970  968  968  968  965  965  962  962  959  959  959  959  959  959  959  959  959  962  962  962  959  959  959  959  962  962  962  962  962  962  962  962  959  959  959  959  959  959 1004 1004 1004 1004 1004 1004 1004 1001 1001  987  987  981  981  981  990  990  990  987  981  981  981    0    0    0    0    0    0    0    0    0    0    0    0    0    0    0    0    0    0    0    0 1016 1016 1016 1013 1016 1016 1016 1016 1016 1016 1016 1016 1016 1016 1016 1016 1016 1016 1013 1013 1010 1013 1013 1010 1010 1010 1010 1010 1010 1010 1010 1010 1010 1007 1007 1007 1007 1007 1007 1007 1007 1007 1007 1007 1007 1004 1004 1004 1004 1004 1001 1001 1001 1001 1001 1001 1001 1001 1001 1001 1001  998  998  995  995  995  995  995  993  995  998  998  998  998  998  998  998  998  998  995  995  995  993  993  993  993  993  993  993  993  993  993  993  990  990  990  990  990  987  987  987  987  987  987  984  984  984  984  984  984  984  984  984  984  987  987  987  987  987  987  987  987  987  987  987  987  984  984
1111 1111 1111 1111 1111 1111 1111 1111 1111 1111 1111 1111 1111 1111 1114 1114 1114 1114 1114 1114 1114 1118 1118 1118 1118 1118 1118 1118 1122 1118 1118 1118 1118 1122 1118 1118 1118 1118 1122 1122 1122 1122 1122 1125 1122 1122 1122 1122 1122 1122 1122 1118 1122 1122 1122 1122 1122 1125 1125 1125 1125 1125 1125 1122 1125 1122 1122 1122 1122 1122 1125 1125 1122 1125 1122 1125 1122 1122 1122 1122 1122 1122 1122 1122 1122 1122 1122 1122 1122 1118 1118 1118 1118 1118 1122 1118 1118 1118 1118 1118 1118 1114 1114 1114 1114 1114 1114 1114 1114 1114 1114 1114 1114 1114 1114 1114 1114 1114 1114 1114 1111 1111 1107 1107 1111 1107 1107 1107 1107 1107 1107 1104 1104 1104 1104 1104 1100 1100 1104 1100 1100 1104 1104 1104 1104 1107 1104 1107 1107 1104 1104 1104 1104 1104 1104 1104 1104 1104 1104 1104 1100 1100 1100 1100 1100 1100 1100 1100 1100 1100 1100 1100 1097 1097 1097 1097 1097 1097 1097 1097 1097 1097 1097 1097 1093 1093 1093 1093 1093 1090 1090 1090 1090 1090 1090 1090 1090 1090 1090 1090 1090 1086 1090 1086 1086 1086 1086 1086 1086 1083 1079 1086 1086 1086 1086 1083 1083 1083 1083 1083 1083 1083 1079 1079 1079 1083 1079 1079 1079 1079 1079 1079 1076 1079 1076 1076 1076 1079 1076 1076 1076 1076 1076 1073 1073 1073 1069 1069 1069 1069 1069 1069 1069 1069 1069 1069 1069 1069 1069 1069 1069 1069 1066 1066 1069 1066 1066 1066 1069 1066 1066 1066 1066 1066 1066 1063 1066 1066 1066 1066 1066 1066 1063 1063 1066 1063 1063 1063 1063 1063 1063 1060 1060 1060 1060 1063 1060 1060 1060 1060 1060 1060 1056 1056 1056 1056 1056 1056 1056 1056 1056 1056 1056 1056 1056 1056 1053 1053 1053 1050 1050 1050 1050 1050 1050 1050 1053 1050 1050 1050 1050 1050 1050 1050 1050 1050 1050 1050 1050 1047 1047 1047 1050 1050 1047 1050 1050 1047 1047 1047 1047 1047 1047 1047 1047 1047 1047 1047 1047 1047 1047 1047 1047 1047 1044 1044 1040 1040 1040 1040 1040 1040 1040 1040 1040 1040 1037 1037 1037 1037 1037 1037 1034 1034 1034  973  973  973  973  973  970  968  968  968  965  965  962  962  959  959  959  959  959  959  959  959  959  962  962  962  959  959  959  962  962  962  962  962  962  962  962  962  959  959  959  959  959  959 1004 1004 1001 1004 1004 1001 1001  998  990  984  987  987  984  984  984  984  984  981  978  981  978    0    0    0    0    0    0    0    0    0    0    0    0    0    0    0    0    0    0    0    0 1016 1016 1016 1013 1016 1016 1016 1016 1016 1016 1016 1016 1016 1016 1016 1013 1013 1013 1013 1010 1013 1013 1013 1013 1013 1013 1010 1010 1010 1010 1010 1010 1007 1007 1007 1007 1007 1007 1007 1007 1007 1007 1007 1007 1004 1004 1004 1004 1004 1004 1001 1001 1004 1001 1001  998 1001 1001 1001  998  998  998  998  995  995  995  995  995  993  995  998  998  998  998  998  998  998  998  995  995  995  993  993  993  993  993  993  993  990  990  990  993  990  990  990  990  990  990  987  987  987  987  987  987  984  984  984  984  984  984  984  984  984  984  984  987  987  987  987  987  987  987  984  984  987  984  984  984
1111 1111 1111 1111 1107 1111 1111 1111 1111 1111 1111 1111 1111 1111 1114 1114 1114 1114 1114 1114 1114 1114 1114 1118 1118 1118 1118 1118 1118 1118 1118 1118 1118 1118 1118 1118 1118 1118 1122 1125 1122 1122 1125 1125 1122 1125 1122 1122 1122 1122 1122 1122 1122 1122 1122 1122 1122 1122 1125 1125 1122 1125 1125 1122 1125 1125 1125 1122 1125 1125 1125 1125 1125 1125 1125 1125 1125 1122 1122 1122 1125 1125 1122 1122 1122 1122 1122 1122 1122 1118 1118 1118 1118 1118 1118 1118 1118 1118 1114 1118 1118 1114 1114 1114 1114 1114 1114 1114 1118 1118 1114 1114 1114 1114 1114 1111 1111 1114 1111 1114 1111 1111 1107 1107 1111 1107 1107 1107 1107 1107 1107 1104 1104 1104 1104 1100 1100 1100 1104 1100 1100 1104 1104 1104 1104 1107 1107 1107 1107 1107 1107 1104 1104 1104 1104 1104 1104 1100 1100 1100 1100 1097 1097 1097 1097 1097 1097 1097 1100 1100 1100 1097 1097 1097 1097 1097 1097 1097 1097 1097 1097 1093 1097 1093 1093 1093 1093 1093 1093 1090 1090 1090 1090 1090 1090 1090 1090 1090 1090 1090 1090 1086 1090 1086 1086 1086 1086 1086 1083 1083 1083 1086 1086 1086 1083 1083 1083 1083 1083 1083 1083 1083 1079 1079 1079 1083 1079 1079 1079 1079 1079 1079 1079 1079 1076 1079 1079 1079 1076 1076 1076 1076 1073 1073 1073 1073 1069 1069 1069 1069 1069 1069 1069 1069 1069 1069 1069 1069 1069 1069 1066 1069 1066 1066 1069 1066 1066 1066 1069 1066 1066 1066 1066 1066 1063 1063 1066 1066 1066 1066 1066 1066 1066 1063 1066 1066 1063 1063 1060 1060 1060 1060 1060 1060 1060 1060 1060 1060 1060 1060 1060 1060 1056 1056 1056 1056 1056 1056 1056 1056 1056 1056 1056 1056 1056 1056 1056 1053 1053 1053 1053 1050 1050 1050 1050 1050 1050 1050 1050 1050 1047 1050 1050 1050 1050 1050 1050 1050 1047 1047 1047 1047 1050 1047 1047 1047 1050 1047 1047 1047 1047 1047 1047 1047 1047 1047 1047 1047 1047 1047 1047 1047 1047 1044 1044 1044 1040 1040 1040 1040 1040 1037 1040 1037 1037 1040 1037 1037 1037 1037 1037 1037 1037 1037 1037  973  973  973  973  976  973  970  968  968  965  965  962  962  959  959  959  959  959  962  959  959  959  962  962  962  962  959  959  962  962  962  962  962  962  962  962  962  962  959  959  959  959  959 1004 1004 1004 1004 1004 1001 1001  998  993  987  987  984  984  981  981  981  981  978  976  978  978  978    0    0    0    0    0    0    0    0    0    0    0    0    0    0    0    0    0    0    0    0 1016 1016 1016 1016 1016 1016 1016 1016 1016 1016 1016 1016 1016 1016 1013 1013 1013 1013 1010 1013 1013 1013 1013 1013 1013 1010 1010 1010 1010 1010 1010 1007 1007 1007 1007 1007 1007 1007 1007 1007 1004 1004 1004 1004 1004 1004 1004 1004 1004 1004 1001 1004 1001 1001 1001 1001 1001 1001 1001  998  998  995  995  995  995  995  995  993  993  995  995  995  995  998  995  995  995  995  995  995  995  993  993  993  993  993  990  990  990  990  990  990  990  990  987  987  987  987  987  987  987  987  987  984  984  984  984  984  981  981  981  981  984  984  987  987  987  987  987  987  987  984  984  987  987  984  984
1111 1111 1111 1111 1111 1111 1111 1111 1111 1111 1111 1111 1111 1111 1114 1111 1114 1114 1114 1114 1114 1114 1114 1114 1114 1118 1118 1118 1118 1118 1118 1118 1118 1118 1118 1118 1118 1118 1122 1122 1122 1122 1125 1125 1118 1125 1118 1118 1118 1118 1118 1118 1122 1122 1122 1122 1122 1125 1125 1125 1122 1122 1125 1122 1125 1125 1125 1122 1125 1125 1125 1125 1125 1125 1122 1125 1125 1125 1122 1122 1125 1125 1122 1122 1122 1122 1122 1122 1122 1122 1118 1118 1118 1118 1118 1118 1118 1118 1114 1114 1114 1114 1114 1114 1114 1114 1114 1114 1118 1114 1114 1114 1114 1114 1114 1111 1111 1111 1111 1111 1111 1107 1107 1107 1107 1107 1107 1107 1107 1107 1107 1104 1104 1104 1104 1100 1100 1100 1100 1100 1100 1100 1104 1104 1104 1107 1107 1107 1107 1107 1104 1104 1104 1104 1104 1104 1104 1100 1100 1100 1100 1097 1100 1100 1100 1100 1100 1100 1100 1100 1100 1097 1093 1097 1097 1097 1097 1097 1097 1097 1097 1097 1097 1093 1093 1093 1093 1093 1093 1093 1090 1090 1090 1090 1090 1090 1090 1090 1090 1090 1090 1090 1090 1086 1086 1086 1086 1083 1083 1083 1083 1083 1083 1083 1083 1083 1083 1083 1083 1083 1083 1083 1079 1083 1083 1083 1079 1079 1079 1079 1079 1079 1079 1079 1079 1079 1076 1076 1076 1076 1076 1076 1073 1073 1073 1069 1069 1069 1069 1069 1069 1069 1069 1069 1069 1069 1069 1069 1069 1069 1069 1069 1066 1066 1066 1066 1066 1069 1066 1066 1066 1066 1063 1063 1063 1063 1066 1066 1066 1066 1066 1066 1066 1063 1063 1066 1063 1063 1063 1063 1063 1060 1060 1060 1060 1060 1060 1060 1060 1060 1060 1060 1056 1056 1056 1056 1056 1056 1056 1056 1056 1056 1056 1056 1053 1053 1053 1053 1050 1053 1053 1050 1050 1053 1050 1050 1050 1050 1050 1050 1047 1050 1050 1050 1050 1050 1050 1050 1047 1047 1047 1047 1050 1050 1047 1047 1050 1047 1047 1047 1047 1047 1047 1047 1047 1047 1047 1047 1047 1047 1047 1047 1044 1044 1040 1040 1040 1037 1040 1040 1040 1040 1040 1037 1037 1040 1037 1037 1040 1037 1037 1037 1037 1037 1037  973  976  973  973  973  970  970  968  965  965  965  962  962  962  959  962  962  962  962  962  962  959  965  962  962  962  962  959  962  962  962  962  962  962  959  959  959  959  959  959  959  959  959  959 1004 1001 1001 1001 1001  998  995  993  987  987  984  981  981  981  978  976  976  973  978  978  978    0    0    0    0    0    0    0    0    0    0    0    0    0    0    0    0    0    0    0    0 1013 1013 1013 1016 1016 1016 1016 1016 1016 1016 1016 1016 1016 1013 1013 1013 1013 1010 1010 1013 1013 1013 1013 1013 1013 1010 1010 1010 1010 1010 1007 1007 1007 1007 1007 1007 1007 1007 1007 1004 1004 1004 1004 1004 1004 1004 1004 1004 1004 1004 1004 1004 1001 1001 1001 1001 1001 1001  998  998  998  995  995  995  995  995  995  993  993  995  995  995  995  995  995  995  995  995  995  995  995  995  995  993  993  993  993  990  990  990  990  990  990  990  987  990  990  987  987  987  987  987  987  987  987  984  984  984  984  984  984  984  984  984  987  987  987  987  987  987  987  984  984  987  987  984  984
1111 1111 1111 1111 1111 1111 1111 1111 1111 1111 1111 1111 1111 1111 1114 1111 1111 1111 1111 1111 1114 1114 1114 1118 1118 1118 1118 1114 1118 1118 1114 1118 1118 1118 1118 1118 1118 1118 1122 1122 1122 1122 1122 1122 1118 1118 1118 1118 1118 1118 1118 1118 1118 1122 1122 1122 1122 1122 1125 1125 1122 1125 1125 1125 1125 1125 1125 1122 1125 1122 1125 1125 1125 1125 1122 1125 1122 1125 1122 1118 1122 1122 1122 1122 1122 1122 1122 1122 1122 1118 1118 1118 1118 1118 1118 1118 1114 1118 1114 1114 1114 1114 1114 1114 1114 1114 1114 1114 1114 1114 1114 1114 1114 1111 1111 1111 1107 1111 1111 1111 1111 1111 1107 1107 1111 1107 1107 1107 1107 1107 1104 1104 1104 1104 1104 1100 1100 1100 1100 1100 1100 1100 1100 1104 1104 1107 1107 1107 1107 1107 1104 1104 1104 1104 1100 1100 1100 1100 1100 1100 1097 1097 1097 1097 1097 1097 1097 1097 1097 1097 1097 1097 1093 1093 1093 1093 1093 1093 1093 1097 1097 1093 1093 1093 1093 1093 1093 1093 1093 1093 1090 1090 1090 1090 1090 1090 1086 1086 1090 1090 1090 1086 1090 1086 1086 1086 1083 1083 1083 1079 1079 1083 1083 1083 1083 1083 1083 1083 1083 1083 1083 1083 1079 1083 1079 1079 1079 1079 1079 1079 1079 1079 1079 1079 1076 1076 1076 1079 1076 1076 1076 1076 1073 1073 1069 1069 1069 1069 1069 1069 1069 1069 1069 1069 1069 1069 1069 1066 1069 1066 1066 1066 1066 1066 1069 1069 1066 1069 1069 1066 1066 1066 1066 1063 1063 1063 1066 1066 1066 1066 1066 1066 1066 1066 1066 1066 1063 1060 1060 1060 1060 1060 1060 1060 1060 1060 1060 1060 1060 1060 1056 1056 1056 1056 1056 1056 1056 1056 1056 1056 1056 1056 1056 1056 1053 1053 1053 1053 1053 1050 1050 1050 1050 1050 1050 1050 1050 1050 1050 1050 1050 1050 1050 1050 1047 1050 1047 1047 1047 1047 1047 1047 1050 1050 1050 1047 1047 1047 1047 1047 1047 1047 1047 1047 1047 1047 1047 1047 1047 1047 1047 1047 1044 1044 1044 1044 1040 1040 1040 1040 1040 1040 1037 1037 1037 1040 1037 1037 1037 1037 1037 1037 1037 1037 1037  973  976  976  976  976  973  970  968  965  965  965  962  959  959  959  959  962  962  962  962  959  959  965  962  962  962  962  959  962  962  962  962  959  959  959  959  959  959  959  959  959  959  959  959 1004 1004 1004 1004 1001 1001  998  993  987  984  981  978  978  978  976  976  976  976  976  978  978    0    0    0    0    0    0    0    0    0    0    0    0    0    0    0    0    0    0    0 1013 1013 1013 1013 1016 1016 1016 1016 1016 1016 1016 1016 1016 1016 1016 1013 1013 1013 1013 1013 1013 1013 1013 1013 1013 1013 1010 1010 1010 1007 1010 1007 1007 1007 1007 1007 1007 1007 1007 1007 1007 1004 1004 1004 1004 1004 1004 1004 1004 1004 1004 1001 1004 1001 1001 1001 1001 1001 1001 1001  998  998  995  995  995  995  995  995  995  995  998  995  995  995  995  995  995  995  995  995  995  993  993  993  995  993  993  993  993  990  990  990  990  990  990  987  990  990  990  987  987  987  987  987  987  987  987  984  984  984  984  984  984  984  984  984  987  984  984  984  987  984  984  984  984  984  984  984
1111 1111 1111 1111 1111 1111 1111 1111 1111 1111 1111 1111 1111 1107 1111 1111 1111 1111 1111 1111 1114 1114 1114 1114 1118 1118 1114 1114 1114 1114 1118 1118 1118 1118 1118 1118 1118 1118 1122 1122 1118 1118 1118 1118 1118 1118 1118 1118 1118 1118 1118 1118 1118 1122 1122 1118 1118 1122 1122 1125 1122 1122 1125 1125 1125 1125 1125 1125 1125 1125 1125 1125 1125 1125 1125 1125 1122 1122 1122 1118 1122 1122 1122 1122 1122 1122 1118 1122 1122 1118 1118 1118 1118 1118 1118 1118 1114 1118 1114 1114 1114 1114 1114 1114 1114 1114 1114 1114 1114 1114 1114 1114 1114 1111 1111 1107 1107 1111 1111 1111 1111 1111 1111 1111 1111 1107 1107 1107 1107 1107 1104 1104 1104 1104 1104 1100 1100 1100 1100 1100 1100 1100 1100 1104 1104 1107 1107 1107 1104 1104 1104 1104 1104 1104 1100 1100 1100 1100 1100 1100 1097 1097 1097 1100 1097 1097 1097 1097 1097 1097 1097 1093 1093 1093 1093 1093 1093 1093 1093 1097 1093 1093 1093 1093 1093 1093 1093 1093 1093 1090 1090 1090 1090 1090 1090 1090 1086 1090 1086 1090 1090 1086 1090 1086 1086 1083 1083 1083 1079 1079 1079 1083 1083 1083 1083 1083 1083 1083 1079 1079 1083 1083 1083 1083 1079 1083 1079 1079 1079 1079 1079 1079 1076 1079 1076 1076 1079 1076 1076 1076 1073 1073 1073 1069 1069 1069 1069 1069 1069 1069 1069 1069 1069 1069 1069 1069 1069 1066 1069 1066 1066 1066 1066 1066 1066 1066 1066 1066 1066 1066 1066 1066 1066 1063 1063 1063 1063 1063 1066 1066 1066 1066 1066 1066 1066 1066 1066 1063 1063 1063 1063 1063 1060 1060 1060 1060 1060 1060 1060 1060 1056 1056 1056 1056 1056 1056 1056 1056 1056 1056 1056 1056 1056 1056 1056 1053 1053 1053 1053 1053 1053 1050 1053 1053 1050 1053 1053 1050 1050 1050 1050 1050 1047 1050 1047 1047 1047 1047 1047 1047 1047 1047 1050 1050 1050 1047 1047 1047 1047 1047 1047 1047 1047 1047 1047 1047 1047 1047 1047 1044 1047 1044 1044 1044 1044 1044 1044 1040 1040 1040 1040 1037 1037 1037 1037 1040 1037 1037 1037 1037 1037 1037 1037 1037 1037 1037  976  973  973  973  970  968  968  965  965  965  962  959  959  959  959  959  962  962  962  962  962  965  965  962  962  959  962  962  962  962  959  959  959  959  959  959  959  959  959  959  959  959  959  959    0 1004 1001 1004 1004 1004  984  984  984  981  978  978  978  978  976  976  976  978  978  978    0    0    0    0    0    0    0    0    0    0    0    0    0    0    0    0    0    0    0 1013 1013 1013 1013 1016 1016 1016 1016 1016 1016 1016 1016 1016 1016 1016 1013 1013 1013 1013 1013 1013 1013 1013 1013 1013 1013 1010 1010 1010 1010 1010 1010 1007 1007 1007 1007 1007 1007 1007 1007 1007 1007 1004 1004 1004 1004 1004 1004 1004 1004 1004 1004 1004 1004 1004 1004 1001 1001 1001 1001 1001  998  995  995  995  995  995  995  995  995  995  995  995  995  995  995  995  995  995  995  993  993  993  993  993  993  993  993  993  990  990  990  990  990  990  987  990  990  990  987  987  987  987  987  987  987  987  984  984  984  984  984  984  984  984  987  987  987  987  984  987  984  984  984  984  984  984  984
1111 1111 1111 1111 1111 1111 1111 1111 1111 1111 1111 1111 1111 1111 1111 1111 1111 1111 1111 1111 1111 1111 1111 1114 1114 1114 1114 1114 1118 1118 1118 1118 1118 1118 1118 1118 1118 1118 1118 1118 1118 1118 1118 1118 1118 1118 1118 1118 1118 1118 1118 1118 1118 1122 1122 1122 1118 1122 1122 1125 1122 1122 1125 1122 1122 1125 1125 1125 1125 1122 1125 1125 1125 1125 1122 1122 1122 1122 1122 1118 1122 1122 1122 1122 1122 1122 1118 1122 1122 1118 1118 1118 1118 1118 1118 1118 1114 1118 1114 1114 1114 1114 1118 1118 1118 1114 1114 1114 1114 1114 1114 1114 1111 1111 1111 1107 1107 1107 1111 1107 1111 1111 1111 1111 1111 1107 1107 1107 1107 1107 1104 1104 1104 1104 1104 1104 1100 1100 1100 1100 1100 1104 1100 1104 1104 1104 1104 1107 1104 1104 1104 1104 1104 1104 1100 1100 1100 1100 1100 1100 1097 1097 1100 1100 1097 1097 1097 1097 1097 1097 1097 1093 1093 1093 1093 1093 1093 1093 1093 1093 1093 1093 1093 1093 1093 1093 1093 1093 1093 1090 1090 1090 1090 1090 1090 1090 1086 1090 1086 1090 1090 1086 1090 1086 1083 1083 1083 1079 1079 1079 1079 1083 1083 1083 1083 1083 1083 1083 1079 1083 1083 1083 1083 1083 1083 1083 1079 1079 1079 1079 1079 1079 1079 1079 1079 1079 1079 1079 1076 1076 1073 1073 1073 1069 1069 1069 1069 1069 1069 1069 1069 1069 1069 1069 1069 1069 1069 1069 1069 1066 1066 1066 1066 1066 1066 1066 1066 1066 1066 1066 1066 1066 1066 1063 1063 1060 1063 1063 1066 1066 1066 1066 1066 1066 1066 1066 1066 1063 1063 1063 1063 1063 1060 1060 1060 1060 1060 1060 1060 1060 1056 1060 1056 1056 1056 1056 1056 1056 1056 1056 1056 1056 1056 1056 1056 1053 1053 1050 1053 1053 1053 1050 1053 1053 1053 1053 1053 1050 1050 1050 1047 1047 1047 1047 1047 1047 1047 1047 1047 1047 1047 1047 1050 1050 1050 1050 1047 1047 1047 1047 1047 1047 1047 1047 1047 1047 1047 1047 1044 1044 1044 1044 1044 1044 1044 1044 1040 1040 1040 1040 1040 1037 1037 1037 1037 1040 1037 1037 1037 1037 1037 1037 1037 1037 1037 1037  973  973  973  973  970  968  968  965  965  965  962  959  959  959  959  959  962  962  962  962  959  965  962  962  959  959  959  959  959  959  959  959  959  959  959  959  959  959  959  959  959  959  959    0    0    0 1004 1004 1004 1004  998  984  984  984  981  981  978  978  978  978  978  978  978  978    0    0    0    0    0    0    0    0    0    0    0    0    0    0    0    0    0    0    0 1013 1013 1013 1013 1016 1016 1016 1016 1016 1016 1016 1016 1016 1016 1016 1013 1013 1013 1010 1010 1013 1010 1010 1013 1013 1013 1010 1010 1010 1010 1010 1007 1007 1007 1007 1007 1007 1007 1007 1007 1007 1007 1004 1004 1004 1004 1004 1004 1004 1004 1004 1004 1004 1004 1001 1004 1001 1001 1001 1001  998  998  995  995  995  995  995  995  995  995  995  995  995  995  995  995  995  995  995  995  993  993  993  993  993  993  993  993  993  990  990  990  990  990  987  987  990  990  990  987  987  987  987  987  987  987  987  984  984  984  984  984  984  984  984  984  987  984  987  984  987  984  984  984  984  987  984  984
1111 1111 1111 1111 1111 1111 1111 1111 1111 1111 1111 1111 1111 1107 1111 1111 1111 1111 1111 1111 1111 1111 1111 1114 1114 1114 1114 1118 1118 1118 1118 1118 1118 1118 1118 1118 1118 1118 1118 1118 1118 1118 1118 1118 1118 1118 1118 1118 1118 1118 1118 1118 1118 1118 1118 1118 1118 1122 1122 1122 1122 1122 1122 1122 1122 1125 1125 1125 1125 1122 1125 1125 1125 1125 1122 1122 1122 1122 1118 1118 1122 1122 1122 1122 1122 1122 1122 1122 1122 1118 1118 1118 1118 1118 1118 1118 1114 1118 1114 1114 1114 1114 1114 1114 1114 1114 1114 1114 1114 1114 1114 1114 1111 1111 1111 1107 1107 1111 1111 1107 1111 1111 1111 1111 1111 1107 1107 1107 1107 1107 1104 1104 1104 1104 1104 1104 1104 1100 1100 1100 1100 1104 1100 1104 1104 1107 1107 1107 1107 1104 1104 1104 1104 1104 1100 1100 1100 1100 1100 1097 1097 1097 1100 1100 1097 1097 1097 1097 1097 1097 1093 1093 1093 1093 1093 1093 1093 1093 1093 1093 1093 1093 1093 1093 1093 1093 1093 1093 1093 1090 1090 1090 1090 1090 1086 1090 1086 1090 1086 1090 1090 1086 1086 1086 1083 1083 1083 1079 1079 1079 1083 1083 1083 1083 1083 1083 1083 1083 1079 1083 1083 1083 1083 1083 1079 1079 1079 1079 1079 1079 1079 1079 1079 1079 1079 1079 1079 1079 1076 1076 1073 1073 1073 1069 1069 1069 1069 1069 1069 1069 1069 1069 1069 1069 1069 1069 1069 1066 1066 1066 1066 1066 1066 1066 1066 1069 1069 1069 1069 1066 1066 1066 1066 1063 1063 1063 1063 1066 1066 1066 1066 1069 1066 1066 1066 1066 1066 1063 1063 1060 1060 1060 1060 1060 1060 1060 1060 1060 1060 1060 1060 1060 1056 1056 1056 1056 1056 1056 1056 1056 1056 1056 1056 1056 1056 1053 1053 1050 1053 1053 1053 1053 1053 1053 1053 1053 1053 1050 1050 1050 1047 1047 1050 1050 1047 1047 1050 1047 1047 1047 1047 1047 1050 1050 1050 1050 1047 1047 1047 1047 1047 1047 1047 1047 1047 1047 1047 1044 1044 1044 1044 1044 1044 1044 1044 1044 1044 1044 1044 1040 1040 1040 1037 1037 1037 1037 1037 1037 1037 1037 1037 1037 1037 1037 1037 1037 1037  973  973  973  970  968  968  965  965  962  959  959  959  959  959  959  962  962  959  959  959  962  962  959  959  959  959  959  959  959  959  959  959  959  959  959  959  959  959  959  962  959  959    0    0    0 1004 1004 1001 1001  998  984  984  984  981  981  978  978  978  978  978  978  978  978    0    0    0    0    0    0    0    0    0    0    0    0    0    0    0    0    0    0    0 1010 1010 1010 1010 1013 1016 1016 1016 1016 1016 1016 1016 1013 1016 1013 1013 1013 1013 1010 1010 1013 1010 1010 1013 1013 1013 1013 1010 1013 1010 1010 1007 1007 1007 1007 1007 1007 1007 1007 1007 1007 1004 1004 1004 1004 1004 1004 1004 1004 1004 1004 1004 1004 1004 1004 1004 1001 1001 1001  998  998  998  995  995  995  995  995  995  995  995  995  995  995  995  995  995  995  993  993  993  993  993  993  993  993  993  993  993  993  990  990  990  990  990  987  987  990  990  990  987  987  987  987  987  987  987  987  987  984  984  987  984  984  984  984  984  987  984  987  987  987  984  984  984  987  987  984  984
1111 1111 1111 1111 1111 1111 1111 1111 1111 1111 1111 1111 1111 1111 1111 1111 1111 1111 1111 1111 1111 1111 1111 1111 1111 1114 1118 1114 1114 1118 1118 1114 1118 1118 1118 1118 1118 1114 1118 1118 1118 1118 1118 1118 1118 1118 1118 1118 1118 1118 1118 1118 1118 1122 1122 1118 1118 1122 1122 1122 1122 1122 1122 1122 1122 1125 1125 1122 1125 1122 1122 1125 1122 1122 1122 1122 1122 1122 1118 1118 1122 1122 1118 1122 1122 1118 1118 1118 1122 1118 1118 1118 1118 1118 1118 1118 1114 1118 1114 1114 1118 1118 1118 1118 1118 1114 1114 1114 1114 1114 1114 1111 1111 1111 1111 1107 1107 1111 1111 1111 1111 1107 1111 1111 1111 1107 1107 1107 1107 1107 1107 1107 1107 1104 1104 1104 1104 1104 1104 1104 1100 1104 1100 1104 1100 1107 1107 1107 1107 1107 1107 1104 1104 1104 1100 1100 1100 1100 1100 1097 1097 1097 1100 1100 1097 1097 1097 1100 1097 1097 1097 1093 1093 1093 1093 1093 1093 1093 1093 1093 1093 1093 1093 1093 1093 1093 1093 1093 1093 1090 1090 1090 1090 1090 1086 1086 1086 1086 1086 1090 1090 1086 1086 1086 1083 1083 1083 1079 1079 1079 1079 1083 1083 1083 1083 1083 1083 1083 1079 1083 1083 1079 1079 1083 1079 1079 1079 1079 1079 1079 1079 1079 1079 1079 1079 1076 1076 1076 1076 1076 1073 1073 1073 1069 1069 1069 1069 1069 1069 1069 1069 1069 1069 1069 1069 1069 1069 1066 1066 1066 1066 1066 1066 1066 1066 1069 1069 1069 1069 1066 1066 1066 1066 1063 1063 1063 1066 1066 1066 1066 1066 1066 1066 1066 1066 1066 1063 1063 1063 1060 1060 1060 1060 1060 1060 1060 1060 1060 1060 1060 1056 1060 1056 1056 1056 1056 1056 1056 1056 1056 1056 1056 1056 1056 1053 1053 1053 1050 1053 1053 1053 1053 1053 1053 1053 1053 1053 1053 1050 1050 1050 1050 1050 1047 1047 1047 1047 1047 1047 1047 1047 1047 1050 1050 1050 1050 1047 1047 1047 1047 1047 1047 1047 1047 1047 1047 1044 1044 1044 1044 1044 1044 1044 1044 1044 1044 1044 1040 1044 1040 1040 1040 1037 1037 1037 1037 1037 1037 1037 1037 1037 1037 1037 1037 1037 1037 1037  970  970  970  968  968  965  965  965  962  959  957  959  959  959  959  959  959  959  959  959  962  959  959  959  959  959  959  959  959  959  959  959  959  959  959  959  959  959  962  962  959  959    0    0    0 1004 1001 1001 1001 1001  990  987  987  984  981  981  978  978  978  978  978  978  978    0    0    0    0    0    0    0    0    0    0    0    0    0    0    0    0    0    0    0 1010 1010 1010 1010 1013 1013 1013 1013 1016 1016 1016 1016 1016 1016 1016 1013 1013 1013 1010 1010 1010 1010 1010 1013 1013 1010 1013 1010 1013 1010 1010 1007 1007 1007 1007 1007 1007 1007 1007 1007 1007 1004 1004 1004 1004 1004 1004 1004 1004 1004 1004 1004 1004 1004 1004 1004 1001 1001  998  998  998  995  995  995  995  995  995  995  995  993  995  995  995  995  995  995  993  993  993  993  990  990  993  993  993  993  993  993  993  993  993  993  990  990  990  987  990  990  990  987  987  987  987  987  987  987  987  987  984  984  987  984  984  984  984  984  987  984  984  984  984  984  984  984  984  987  984  984
