1107 1107 1107 1107 1107 1107 1107 1107 1107 1107 1104 1104 1104 1104 1100 1100 1100 1100 1097 1097 1097 1097 1100 1100 1100 1100 1100 1100 1100 1100 1100 1100 1100 1100 1100 1100 1100 1100 1100 1100 1100 1100 1100 1100 1100 1100 1097 1097 1097 1100 1100 1100 1100 1100 1100 1100 1100 1100 1100 1104 1107 1107 1111 1114 1118 1122 1122 1122 1122 1118 1122 1122 1118 1118 1118 1118 1118 1114 1114 1114 1114 1114 1114 1114 1114 1114 1114 1114 1118 1114 1118 1114 1114 1114 1114 1114 1114 1114 1114 1114 1114 1114 1114 1114 1114 1114 1114 1111 1111 1111 1111 1111 1107 1107 1107 1111 1107 1107 1107 1107 1107 1107 1107 1107 1107 1107 1107 1107 1107 1107 1107 1104 1104 1104 1104 1104 1104 1104 1104 1104 1104 1104 1100 1100 1100 1100 1100 1100 1100 1100 1100 1100 1100 1104 1100 1100 1097 1097 1097 1097 1097 1097 1097 1097 1093 1093 1093 1093 1093 1093 1093 1093 1093 1093 1093 1093 1090 1093 1093 1093 1093 1093 1090 1090 1090 1090 1090 1090 1090 1090 1090 1090 1090 1090 1086 1086 1086 1086 1086 1086 1086 1086 1086 1083 1083 1079 1079 1079 1079 1079 1079 1079 1079 1079 1079 1079 1079 1076 1076 1079 1079 1079 1079 1079 1079 1079 1079 1079 1076 1076 1076 1076 1073 1073 1073 1073 1073 1073 1069 1069 1069 1069 1069 1069 1069 1069 1069 1069 1069 1066 1066 1069 1066 1069 1069 1066 1066 1066 1066 1066 1066 1066 1066 1066 1066 1066 1066 1066 1066 1063 1063 1063 1060 1060 1060 1060 1060 1060 1060 1060 1056 1056 1056 1056 1060 1060 1060 1060 1060 1060 1060 1060 1056 1056 1056 1060 1060 1056 1056 1056 1056 1056 1056 1053 1053 1053 1056 1053 1056 1056 1056 1056 1056 1056 1053 1053 1053 1050 1047 1047 1047 1047 1047 1047 1047 1047 1047 1047 1047 1050 1050 1050 1047 1050 1050 1050 1047 1047 1047 1047 1047 1047 1044 1044 1044 1044 1044 1044 1044 1044 1047 1047 1044 1044 1044 1044 1044 1040 1040 1040 1040 1040 1040 1040 1040 1040 1040 1037 1037 1037 1037 1037 1037 1034 1037 1037 1034 1034 1034 1034 1034 1034 1034 1034 1034 1034 1034 1034 1031 1031 1031 1031 1031 1028 1031 1031 1031 1031 1031 1031 1034 1034 1034    0    0    0    0    0    0    0    0    0    0    0    0    0    0    0    0    0    0    0    0    0    0    0    0    0    0    0  973  973  973  973  973  973  973  973  973  976  976  976  976  978  978  978  981  981  981  981    0 1013 1013 1013 1013 1013 1013 1013 1013 1013 1013 1013 1013 1010 1010 1010 1013 1010 1013    0    0    0    0    0    0    0    0    0    0    0    0    0 1013 1013 1013 1010 1010 1013 1013 1010 1010 1010 1010 1010 1007 1010 1010 1007 1007 1007 1007 1007 1007 1004 1004 1004 1004 1004 1004 1004 1004 1004 1004 1004 1001 1001 1001 1001 1001 1004 1004 1004 1001 1004 1001 1001 1001 1001  998  998  995  995  995  995  995  995  995  993  993  993  993  993  993  993  993  993  993  995  995  995  993  993  993  993  993  993  993  993  990  990  987  990  987  987  987  987  987  987  987  987  987  987  987  987  984  984  984  984  984  984  984  984  984  984  984  981  984  984  984  984  981  981  981  981  981  981  981
1107 1107 1107 1107 1107 1107 1107 1107 1107 1107 1104 1104 1104 1104 1100 1100 1097 1097 1097 1097 1097 1097 1100 1100 1100 1100 1100 1100 1100 1100 1100 1100 1100 1100 1100 1100 1100 1100 1100 1100 1100 1097 1100 1100 1097 1097 1097 1097 1097 1097 1100 1100 1097 1100 1100 1100 1100 1100 1100 1104 1107 1111 1111 1114 1118 1122 1122 1122 1122 1122 1122 1122 1118 1118 1118 1118 1114 1114 1114 1114 1114 1114 1111 1114 1114 1114 1114 1114 1114 1114 1118 1114 1114 1114 1114 1114 1114 1114 1114 1114 1114 1114 1114 1111 1114 1114 1114 1111 1111 1111 1111 1111 1107 1107 1107 1107 1107 1107 1107 1107 1107 1107 1107 1107 1107 1107 1107 1107 1107 1104 1104 1104 1104 1104 1104 1104 1104 1104 1104 1104 1104 1100 1100 1100 1100 1100 1100 1100 1100 1100 1100 1100 1100 1104 1097 1097 1097 1097 1097 1097 1093 1093 1097 1097 1093 1093 1093 1093 1093 1093 1093 1093 1093 1093 1093 1093 1090 1090 1090 1093 1093 1093 1090 1090 1090 1090 1090 1090 1090 1090 1090 1090 1090 1090 1090 1090 1090 1086 1086 1086 1086 1086 1086 1083 1083 1079 1079 1079 1079 1079 1079 1079 1076 1079 1076 1076 1076 1076 1076 1079 1079 1079 1079 1079 1079 1079 1079 1079 1076 1076 1076 1076 1073 1073 1069 1069 1073 1069 1069 1069 1069 1069 1069 1069 1069 1069 1069 1069 1069 1066 1066 1066 1066 1066 1066 1066 1066 1066 1066 1066 1066 1066 1066 1066 1066 1066 1066 1066 1066 1063 1063 1063 1063 1060 1060 1060 1060 1060 1060 1060 1056 1056 1056 1056 1060 1060 1060 1060 1060 1060 1060 1060 1056 1056 1056 1056 1056 1056 1056 1056 1056 1056 1056 1053 1053 1053 1053 1053 1056 1056 1056 1056 1056 1056 1053 1053 1053 1050 1047 1047 1047 1047 1047 1047 1047 1047 1047 1047 1047 1050 1050 1050 1047 1050 1050 1050 1047 1047 1047 1047 1047 1047 1044 1044 1044 1044 1044 1044 1044 1044 1047 1044 1044 1044 1044 1040 1040 1040 1037 1037 1040 1040 1037 1040 1040 1040 1040 1037 1037 1037 1037 1037 1037 1037 1037 1037 1034 1034 1034 1034 1034 1034 1034 1034 1034 1034 1034 1031 1031 1031 1031 1031 1031 1031 1031 1031 1031 1031 1031 1031 1034 1034 1034    0    0    0    0    0    0    0    0    0    0    0    0    0    0    0    0    0    0    0    0    0    0    0    0    0    0    0  973  973  970  973  970  973  976  973  973  976  976  976  978  978  978  981  981  981  981  981    0 1013 1013 1013 1013 1013 1013 1016 1013 1013 1013 1016 1013 1013 1013 1010 1013 1010 1013 1010    0    0    0    0    0    0    0    0    0    0    0 1010 1013 1010 1013 1010 1010 1010 1010 1010 1010 1010 1010 1010 1007 1007 1010 1007 1007 1007 1007 1007 1007 1004 1004 1004 1004 1004 1004 1004 1004 1004 1004 1004 1001 1001 1001 1001 1001 1001 1001 1001 1001 1001 1001 1001 1001  998  998  995  995  995  995  995  995  995  995  993  993  993  993  993  993  993  993  993  993  995  995  993  993  993  993  993  993  993  993  993  993  993  990  990  987  987  987  987  987  987  987  987  987  987  987  987  984  984  984  984  984  984  984  984  984  984  984  981  984  984  984  984  981  981  981  981  981  981  981
1107 1107 1107 1107 1107 1107 1107 1107 1107 1107 1104 1104 1104 1100 1100 1100 1097 1097 1097 1097 1097 1097 1100 1100 1100 1100 1100 1100 1100 1100 1100 1100 1100 1100 1100 1100 1100 1100 1100 1100 1100 1100 1100 1097 1097 1097 1097 1097 1097 1097 1097 1097 1097 1100 1100 1100 1100 1100 1100 1107 1107 1111 1114 1118 1122 1122 1122 1122 1122 1122 1122 1118 1118 1118 1118 1114 1114 1114 1114 1114 1114 1114 1111 1114 1114 1114 1114 1114 1118 1114 1118 1114 1114 1114 1114 1114 1114 1114 1114 1114 1114 1114 1114 1111 1111 1114 1114 1111 1111 1111 1111 1107 1107 1107 1107 1107 1107 1107 1107 1107 1107 1111 1107 1107 1107 1107 1107 1107 1104 1104 1104 1104 1104 1104 1104 1104 1104 1104 1104 1104 1104 1100 1100 1100 1100 1100 1100 1100 1100 1100 1100 1100 1100 1104 1100 1100 1097 1097 1097 1097 1097 1097 1097 1093 1093 1093 1093 1093 1093 1093 1093 1093 1093 1093 1093 1093 1090 1093 1090 1093 1093 1093 1090 1090 1090 1090 1090 1090 1090 1086 1090 1090 1090 1090 1086 1090 1086 1086 1086 1086 1086 1086 1086 1083 1083 1079 1079 1079 1079 1079 1079 1079 1079 1079 1076 1076 1076 1076 1076 1079 1079 1079 1079 1079 1079 1076 1076 1076 1076 1076 1076 1076 1073 1073 1073 1073 1069 1069 1069 1069 1069 1069 1069 1069 1069 1069 1069 1069 1066 1066 1066 1066 1066 1066 1066 1066 1066 1066 1063 1066 1066 1063 1066 1066 1066 1066 1066 1066 1063 1063 1063 1063 1063 1060 1063 1060 1060 1060 1060 1060 1056 1056 1056 1056 1060 1060 1060 1060 1060 1060 1056 1056 1056 1056 1056 1056 1056 1056 1056 1056 1056 1056 1056 1053 1053 1053 1053 1053 1053 1056 1056 1056 1056 1056 1053 1053 1050 1050 1047 1047 1047 1047 1047 1047 1047 1047 1047 1047 1047 1050 1050 1050 1047 1050 1050 1050 1047 1047 1047 1047 1047 1044 1044 1044 1044 1044 1040 1044 1044 1040 1044 1044 1044 1044 1040 1040 1040 1037 1037 1037 1040 1040 1040 1040 1040 1040 1040 1037 1037 1037 1037 1037 1037 1037 1034 1037 1034 1037 1034 1034 1034 1034 1034 1034 1034 1034 1034 1034 1034 1031 1034 1034 1031 1031 1031 1031 1031 1031 1031 1031 1031 1034 1034 1034    0    0    0    0    0    0    0    0    0    0    0    0    0    0    0    0    0    0    0    0    0    0    0    0    0    0  978  978  976  976  973  973  976  973  973  976  978  978  978  978  981  981  981  984  981    0    0    0 1013 1013 1013 1016 1016 1016 1016 1013 1013 1016 1016 1013 1010 1010 1013 1010 1007 1004    0    0    0    0    0    0    0 1016 1016 1016 1016 1010 1013 1010 1010 1010 1010 1010 1010 1007 1010 1007 1007 1007 1007 1007 1010 1007 1007 1007 1007 1007 1007 1004 1004 1004 1004 1004 1004 1004 1004 1004 1001 1001 1001 1001  998 1001 1001 1001 1001 1001 1001 1001 1001 1001 1001  998  998  995  995  995  995  993  993  993  993  993  993  993  993  993  993  993  993  993  993  995  995  993  993  993  993  993  993  993  990  993  990  990  990  990  987  987  987  987  987  987  987  987  987  984  984  984  984  984  984  984  984  984  984  984  984  984  984  981  984  984  984  984  981  981  981  981  981  981  981
1107 1107 1107 1107 1107 1107 1107 1107 1107 1104 1104 1104 1104 1100 1100 1097 1097 1097 1097 1097 1097 1097 1100 1100 1100 1100 1097 1097 1100 1100 1100 1100 1100 1100 1100 1100 1100 1100 1100 1100 1100 1097 1100 1097 1097 1097 1097 1097 1097 1097 1097 1097 1097 1097 1100 1100 1100 1100 1104 1107 1111 1114 1122 1122 1122 1122 1122 1122 1122 1122 1122 1122 1118 1118 1118 1118 1114 1114 1114 1114 1114 1114 1114 1114 1114 1114 1114 1114 1118 1118 1118 1118 1114 1114 1114 1114 1114 1114 1114 1114 1114 1114 1114 1111 1111 1114 1114 1111 1111 1111 1111 1107 1107 1107 1107 1111 1107 1107 1107 1107 1107 1111 1107 1107 1107 1107 1104 1104 1104 1104 1104 1104 1104 1104 1104 1104 1104 1104 1104 1100 1100 1100 1100 1100 1100 1100 1100 1100 1100 1100 1100 1100 1100 1104 1100 1100 1100 1097 1097 1097 1097 1097 1097 1097 1093 1093 1093 1093 1093 1093 1093 1093 1093 1093 1093 1093 1093 1093 1093 1093 1093 1093 1090 1090 1090 1090 1090 1090 1090 1086 1090 1090 1090 1090 1086 1086 1086 1086 1086 1086 1086 1086 1086 1083 1083 1083 1079 1079 1079 1079 1079 1079 1076 1079 1076 1076 1076 1076 1076 1079 1079 1079 1079 1076 1076 1076 1076 1076 1073 1073 1073 1073 1073 1073 1073 1073 1073 1069 1069 1069 1069 1069 1069 1069 1069 1069 1069 1069 1066 1066 1066 1066 1066 1066 1066 1066 1066 1066 1066 1066 1066 1063 1063 1066 1066 1066 1063 1063 1063 1063 1063 1060 1060 1060 1063 1060 1060 1060 1060 1060 1056 1056 1056 1056 1060 1060 1060 1060 1060 1060 1056 1060 1056 1056 1056 1056 1056 1056 1056 1056 1056 1056 1056 1053 1053 1053 1053 1053 1053 1056 1056 1056 1056 1056 1053 1053 1050 1050 1047 1047 1047 1047 1047 1047 1047 1047 1047 1047 1047 1047 1047 1047 1047 1047 1047 1047 1047 1047 1047 1047 1047 1044 1044 1044 1044 1044 1044 1044 1044 1044 1047 1044 1044 1044 1044 1040 1040 1037 1037 1037 1040 1040 1037 1040 1040 1040 1040 1037 1037 1037 1037 1037 1037 1037 1037 1037 1037 1037 1034 1034 1034 1034 1034 1034 1034 1034 1034 1034 1034 1031 1031 1031 1031 1031 1031 1031 1031 1031 1031 1031 1031 1031 1034 1034    0    0    0    0    0    0    0    0    0    0    0    0    0    0    0    0    0    0    0    0    0    0    0    0    0    0  978  978  978  978  978  978  978  976  976  978  978  981  981  981  981  981  984  984  981    0    0 1013 1013 1016 1013 1016 1016 1016 1016 1013 1013 1013 1013 1013 1010 1010 1013 1010 1007 1007 1007 1016    0 1019 1019 1022 1016 1016 1016 1022 1016 1019 1010 1010 1013 1010 1010 1010 1010 1007 1010 1007 1007 1007 1007 1007 1007 1007 1007 1007 1007 1007 1007 1004 1004 1004 1004 1004 1004 1004 1004 1004 1001 1004 1004 1001 1001 1001 1001 1001 1001 1001  998 1001 1001 1001 1001  998  998  995  995  995  995  995  993  993  993  993  993  993  993  993  993  993  993  993  993  995  993  993  990  990  990  990  990  990  990  990  990  990  987  987  987  987  987  987  987  987  987  984  984  984  984  984  984  984  984  984  984  984  984  984  984  984  984  981  981  984  984  984  981  981  981  981  981  981  981
1107 1107 1107 1107 1107 1107 1107 1107 1107 1104 1104 1100 1100 1097 1097 1097 1097 1097 1097 1097 1093 1097 1097 1097 1097 1097 1097 1097 1097 1097 1100 1100 1100 1100 1100 1100 1100 1100 1100 1100 1100 1097 1097 1097 1097 1097 1093 1097 1097 1097 1097 1097 1097 1097 1097 1100 1100 1104 1107 1111 1114 1118 1122 1122 1125 1125 1122 1122 1122 1122 1122 1118 1118 1118 1118 1118 1114 1114 1114 1114 1114 1114 1114 1114 1114 1114 1114 1114 1118 1118 1118 1118 1118 1114 1114 1114 1114 1114 1114 1114 1114 1114 1114 1111 1111 1111 1111 1111 1111 1111 1107 1107 1107 1107 1107 1111 1107 1107 1111 1111 1107 1111 1107 1104 1107 1104 1104 1104 1104 1104 1104 1104 1104 1104 1104 1104 1104 1104 1104 1100 1100 1100 1100 1100 1100 1100 1100 1100 1100 1100 1100 1100 1100 1104 1100 1100 1100 1097 1097 1097 1097 1097 1097 1097 1093 1093 1093 1093 1093 1093 1093 1093 1093 1093 1093 1093 1090 1093 1093 1090 1093 1093 1090 1090 1090 1090 1090 1090 1090 1086 1090 1086 1090 1090 1086 1086 1086 1086 1086 1086 1086 1086 1086 1086 1083 1083 1079 1079 1079 1079 1079 1079 1076 1079 1076 1076 1076 1076 1076 1079 1079 1079 1079 1076 1076 1076 1073 1073 1073 1073 1073 1073 1073 1073 1073 1073 1073 1069 1069 1069 1069 1069 1069 1069 1069 1069 1069 1066 1066 1066 1066 1066 1066 1066 1066 1066 1066 1063 1063 1063 1063 1063 1063 1063 1066 1063 1063 1063 1063 1063 1063 1060 1060 1063 1063 1060 1060 1060 1060 1060 1056 1056 1056 1056 1060 1060 1060 1060 1060 1056 1056 1056 1056 1056 1056 1056 1056 1056 1056 1056 1056 1056 1056 1053 1053 1053 1053 1053 1053 1056 1056 1056 1056 1053 1053 1053 1050 1050 1047 1047 1047 1047 1047 1047 1047 1047 1047 1047 1047 1050 1050 1047 1047 1047 1047 1047 1047 1047 1047 1047 1047 1044 1044 1044 1044 1044 1044 1044 1044 1044 1047 1044 1044 1044 1040 1040 1040 1037 1037 1037 1037 1037 1037 1037 1037 1037 1037 1037 1037 1037 1037 1037 1037 1037 1037 1037 1034 1034 1034 1034 1034 1034 1034 1034 1034 1034 1034 1031 1031 1031 1031 1031 1031 1028 1031 1028 1028 1028 1031 1031 1031 1034 1031 1034    0    0    0    0    0    0    0    0    0    0    0    0    0    0    0    0    0    0    0    0    0    0    0    0    0    0  978  978  978  978  978  978  978  978  978  976  978  981  981  981  981  981  981  981    0    0    0 1016 1016 1016 1016 1016 1016 1016 1016 1016 1013 1013 1013 1013 1010 1007 1010 1007 1007 1004 1007 1016 1016 1016 1019 1022 1019 1016 1016 1016 1013 1019 1013 1010 1013 1010 1010 1010 1010 1010 1010 1010 1010 1007 1007 1007 1007 1007 1007 1007 1007 1007 1007 1004 1004 1004 1004 1004 1004 1004 1004 1004 1004 1004 1004 1001 1001 1001 1001 1001 1001 1001  998  998 1001 1001  998  998  995  995  995  995  995  993  993  993  993  993  993  993  993  993  993  993  993  993  990  993  993  990  990  990  990  990  990  990  990  990  990  990  987  990  987  987  987  987  987  987  987  984  984  984  984  984  984  984  984  984  984  984  984  984  984  984  984  981  981  981  981  981  981  981  981  981  981  981  981
1107 1107 1107 1107 1107 1107 1107 1107 1104 1104 1100 1100 1100 1097 1097 1097 1097 1097 1097 1097 1093 1097 1097 1097 1097 1097 1097 1097 1097 1097 1100 1100 1100 1100 1100 1100 1100 1100 1100 1100 1100 1097 1097 1097 1097 1093 1093 1093 1097 1097 1097 1097 1097 1097 1100 1100 1100 1104 1107 1111 1114 1122 1122 1122 1125 1125 1122 1122 1122 1122 1122 1122 1118 1118 1118 1118 1114 1114 1114 1114 1114 1114 1114 1114 1114 1114 1114 1114 1118 1118 1118 1118 1118 1114 1114 1114 1114 1114 1114 1114 1114 1114 1114 1111 1111 1111 1111 1111 1111 1111 1107 1107 1107 1107 1107 1111 1107 1107 1111 1111 1107 1111 1107 1107 1107 1107 1104 1104 1104 1104 1104 1104 1104 1104 1104 1104 1104 1104 1104 1104 1104 1100 1100 1100 1100 1100 1100 1100 1100 1100 1100 1100 1097 1100 1100 1100 1097 1097 1097 1097 1097 1097 1097 1097 1093 1093 1093 1093 1093 1093 1093 1093 1093 1093 1093 1093 1090 1093 1093 1090 1093 1093 1090 1090 1090 1090 1090 1090 1090 1086 1090 1086 1090 1090 1086 1086 1086 1083 1083 1086 1086 1086 1086 1083 1083 1083 1079 1079 1079 1079 1076 1079 1076 1076 1076 1076 1076 1076 1076 1079 1079 1079 1079 1076 1076 1073 1073 1073 1073 1073 1073 1073 1073 1073 1073 1073 1073 1069 1069 1069 1069 1069 1069 1069 1069 1069 1066 1066 1066 1066 1066 1066 1066 1066 1066 1066 1066 1063 1063 1063 1063 1063 1063 1063 1063 1063 1063 1063 1063 1060 1060 1060 1060 1060 1060 1060 1060 1060 1060 1060 1056 1056 1056 1056 1060 1060 1060 1060 1060 1056 1056 1056 1056 1056 1056 1056 1056 1056 1056 1056 1056 1056 1056 1053 1053 1053 1053 1053 1053 1053 1056 1056 1056 1053 1053 1050 1050 1050 1047 1047 1047 1047 1047 1047 1047 1047 1047 1047 1047 1050 1050 1047 1047 1047 1047 1047 1047 1044 1047 1044 1044 1044 1044 1044 1044 1044 1044 1044 1044 1044 1047 1047 1044 1044 1044 1040 1040 1040 1037 1037 1037 1037 1037 1037 1037 1037 1037 1037 1037 1037 1037 1037 1037 1037 1037 1037 1034 1034 1034 1034 1034 1034 1034 1034 1034 1034 1034 1034 1034 1031 1031 1031 1031 1028 1028 1028 1028 1028 1028 1031 1031 1034 1034 1031    0    0    0    0    0    0    0    0    0    0    0    0    0    0    0    0    0    0    0    0    0    0    0    0    0    0  978  981  978  981  981  981  978  978  981  978  981  981  981  981  984  981  981  984    0    0    0 1016 1016 1016 1016 1016 1016 1016 1016 1016 1016 1016 1013 1010 1007 1007 1010 1007 1007 1007 1016 1016 1016 1019 1019 1019 1016 1013 1013 1013 1013 1016 1013 1013 1010 1010 1010 1010 1010 1007 1010 1007 1007 1007 1007 1007 1007 1007 1007 1007 1007 1007 1007 1004 1004 1004 1004 1004 1004 1004 1004 1004 1004 1004 1004 1001 1001 1001 1001 1001 1001 1001  998  998  998 1001  998  998  998  995  995  995  995  995  995  993  993  993  993  993  993  993  993  993  993  990  990  993  993  990  990  990  990  990  990  990  990  990  990  990  990  990  987  987  987  987  987  987  987  984  984  984  984  984  984  984  981  984  984  981  981  984  984  984  984  984  981  981  981  981  981  981  978  981  981  981  981
1104 1104 1107 1107 1107 1104 1104 1104 1104 1100 1100 1100 1097 1097 1097 1097 1097 1097 1097 1097 1093 1093 1097 1097 1097 1097 1097 1097 1097 1097 1100 1100 1100 1100 1100 1100 1100 1100 1100 1097 1097 1097 1097 1093 1093 1090 1090 1093 1093 1093 1097 1097 1097 1100 1100 1100 1104 1111 1107 1114 1118 1122 1125 1122 1125 1122 1122 1122 1122 1122 1122 1122 1118 1118 1118 1118 1114 1114 1114 1114 1114 1114 1114 1114 1114 1114 1114 1114 1114 1114 1118 1114 1114 1114 1114 1114 1114 1114 1114 1114 1114 1114 1114 1111 1111 1111 1111 1111 1111 1107 1107 1107 1107 1107 1107 1107 1107 1107 1111 1111 1107 1111 1107 1107 1107 1107 1107 1104 1104 1104 1104 1104 1104 1104 1104 1104 1104 1104 1104 1100 1100 1100 1100 1100 1100 1100 1100 1100 1100 1100 1100 1100 1097 1100 1100 1100 1100 1100 1097 1097 1097 1097 1097 1097 1093 1093 1093 1093 1093 1093 1093 1093 1093 1093 1093 1093 1090 1093 1093 1090 1090 1093 1090 1090 1090 1090 1090 1086 1086 1086 1086 1086 1086 1086 1086 1086 1086 1083 1083 1083 1083 1083 1083 1083 1083 1079 1079 1079 1079 1079 1076 1079 1076 1076 1076 1076 1076 1076 1076 1079 1079 1079 1076 1076 1073 1073 1073 1073 1073 1073 1073 1073 1073 1073 1073 1073 1073 1069 1069 1069 1069 1069 1069 1069 1066 1069 1066 1066 1066 1066 1066 1066 1066 1066 1066 1066 1063 1063 1063 1063 1063 1063 1063 1063 1063 1063 1063 1063 1063 1060 1060 1060 1060 1060 1060 1060 1060 1060 1060 1056 1056 1056 1056 1056 1060 1060 1056 1056 1056 1056 1056 1056 1056 1056 1056 1056 1056 1056 1056 1056 1056 1056 1056 1053 1053 1053 1053 1053 1053 1053 1053 1056 1053 1053 1053 1050 1050 1047 1047 1047 1047 1047 1047 1047 1047 1047 1047 1047 1047 1047 1047 1047 1047 1047 1047 1047 1047 1044 1047 1044 1044 1044 1044 1044 1044 1044 1044 1044 1040 1040 1044 1044 1044 1044 1040 1040 1040 1040 1037 1037 1037 1037 1037 1037 1037 1037 1037 1037 1037 1037 1037 1037 1037 1037 1037 1037 1034 1037 1034 1034 1034 1034 1034 1034 1034 1034 1034 1034 1034 1031 1031 1031 1031 1031 1031 1028 1028 1028 1031 1031 1031 1034 1031 1034 1031    0    0    0    0    0    0    0    0    0    0    0    0    0    0    0    0    0    0    0    0    0    0    0    0    0  981  981  981  981  981  981  981  981  981  981  984  984  984  981  984  981  981    0    0    0    0 1016 1013 1016 1016 1016 1016 1016 1016 1016 1016 1016 1013 1013 1010 1010 1013 1010 1007 1010 1013 1013 1016 1013 1013 1016 1013 1010 1010 1010 1010 1013 1010 1013 1013 1010 1010 1007 1010 1010 1010 1007 1007 1007 1007 1007 1007 1007 1007 1007 1007 1007 1004 1004 1004 1004 1004 1004 1004 1004 1004 1004 1004 1004 1004 1001 1001 1001 1001 1001 1001 1001  998  998  998  998  998  998  995  995  995  995  995  993  993  993  993  993  993  993  993  993  993  993  993  990  990  993  993  990  990  990  990  987  990  990  987  990  990  990  987  990  987  987  987  987  987  987  987  984  984  984  984  984  984  981  981  981  981  981  981  981  981  981  984  981  981  981  981  978  981  981  978  981  981  981  981
1104 1104 1104 1104 1104 1104 1100 1104 1100 1100 1100 1100 1097 1097 1097 1097 1097 1097 1097 1097 1093 1093 1097 1097 1097 1097 1097 1097 1097 1097 1100 1100 1100 1100 1100 1100 1100 1097 1097 1097 1097 1093 1093 1093 1093 1090 1090 1093 1093 1093 1097 1097 1097 1100 1100 1104 1104 1111 1114 1118 1122 1122 1125 1122 1125 1122 1122 1122 1122 1122 1118 1118 1118 1118 1118 1118 1118 1114 1114 1114 1114 1114 1114 1114 1114 1114 1114 1114 1114 1114 1118 1114 1114 1114 1114 1114 1114 1114 1114 1114 1114 1114 1114 1111 1111 1111 1111 1111 1111 1107 1107 1107 1107 1107 1107 1107 1107 1107 1111 1111 1107 1111 1107 1107 1107 1107 1107 1104 1104 1100 1100 1100 1100 1104 1104 1104 1104 1104 1104 1100 1100 1100 1100 1100 1100 1100 1100 1100 1100 1100 1100 1100 1097 1100 1100 1100 1100 1100 1097 1097 1097 1097 1097 1097 1093 1093 1093 1093 1093 1093 1093 1093 1093 1093 1093 1093 1093 1093 1093 1093 1090 1093 1090 1090 1090 1090 1086 1086 1086 1086 1086 1086 1086 1086 1086 1086 1086 1083 1083 1083 1083 1083 1083 1083 1083 1079 1079 1079 1079 1079 1079 1079 1076 1076 1076 1076 1076 1076 1076 1079 1079 1079 1076 1076 1073 1073 1073 1073 1073 1073 1073 1073 1073 1073 1073 1073 1073 1073 1069 1069 1069 1069 1069 1069 1069 1069 1066 1066 1066 1066 1066 1066 1066 1066 1066 1066 1063 1063 1063 1060 1060 1060 1060 1063 1063 1063 1063 1063 1063 1063 1060 1060 1060 1060 1060 1060 1060 1060 1056 1056 1056 1056 1056 1056 1060 1060 1056 1056 1056 1056 1056 1056 1056 1056 1056 1056 1056 1056 1056 1056 1056 1056 1053 1053 1053 1053 1053 1053 1053 1056 1056 1056 1056 1053 1053 1050 1050 1050 1050 1050 1050 1050 1047 1047 1047 1047 1047 1047 1047 1047 1047 1047 1047 1047 1047 1047 1044 1044 1044 1044 1044 1044 1044 1044 1044 1044 1044 1044 1040 1040 1044 1044 1044 1040 1040 1040 1040 1040 1037 1037 1037 1037 1037 1037 1037 1037 1037 1037 1037 1037 1037 1037 1037 1037 1034 1034 1034 1034 1034 1034 1034 1034 1034 1034 1034 1031 1031 1034 1031 1031 1031 1031 1031 1031 1031 1028 1028 1028 1028 1031 1031 1031 1031 1031 1031    0    0    0    0    0    0    0    0    0    0    0    0    0    0    0    0    0    0    0    0    0    0    0    0    0  981  981  981  984  981  984  981  981  981  981  984  984  987  984  984  981  984    0    0    0    0 1019 1019 1019 1016 1016 1019 1019 1016 1016 1016 1016 1016 1013 1013 1013 1013 1010 1010 1013 1013 1013 1013 1013 1013 1013 1013 1010 1010 1010 1007 1010 1010 1010 1010 1010 1007 1007 1010 1010 1010 1010 1007 1010 1010 1007 1007 1007 1007 1007 1007 1007 1004 1004 1004 1004 1004 1004 1004 1004 1004 1004 1004 1004 1004 1001 1001 1001 1001 1001 1001 1001  998  998  998  998  998  995  995  995  995  995  993  993  993  995  993  993  993  993  993  993  993  993  993  990  990  993  990  990  987  990  987  987  990  987  987  990  990  990  987  987  987  987  987  987  984  984  984  984  984  984  984  984  981  981  981  981  981  981  981  981  981  981  981  981  981  981  981  978  978  978  978  978  978  981  978
1100 1100 1104 1104 1104 1100 1100 1104 1100 1100 1100 1097 1097 1097 1097 1097 1093 1093 1093 1093 1093 1093 1097 1097 1097 1097 1097 1097 1097 1097 1097 1100 1100 1100 1100 1100 1097 1097 1097 1097 1097 1093 1093 1093 1090 1090 1090 1093 1093 1093 1097 1097 1097 1100 1100 1104 1107 1114 1118 1122 1122 1122 1125 1125 1125 1122 1122 1118 1118 1118 1118 1118 1114 1114 1114 1118 1118 1118 1118 1114 1118 1114 1114 1114 1114 1114 1114 1114 1114 1118 1118 1114 1114 1114 1114 1114 1114 1114 1114 1114 1114 1114 1111 1111 1111 1111 1111 1111 1111 1107 1107 1107 1107 1107 1107 1107 1107 1107 1107 1107 1107 1107 1107 1107 1104 1104 1104 1104 1100 1100 1100 1100 1100 1104 1100 1104 1104 1100 1100 1100 1100 1100 1100 1100 1100 1100 1100 1100 1100 1100 1100 1100 1097 1100 1100 1100 1100 1100 1097 1097 1097 1097 1097 1097 1097 1097 1093 1093 1093 1093 1093 1093 1093 1093 1093 1093 1093 1093 1093 1093 1090 1093 1090 1090 1090 1090 1086 1086 1086 1083 1086 1086 1086 1086 1086 1086 1086 1083 1083 1083 1083 1079 1083 1079 1083 1079 1079 1079 1079 1079 1079 1079 1076 1076 1076 1076 1076 1076 1076 1079 1079 1076 1076 1076 1073 1073 1069 1069 1073 1073 1073 1073 1073 1073 1073 1073 1073 1073 1069 1069 1069 1069 1069 1069 1066 1069 1066 1066 1066 1066 1066 1066 1066 1066 1066 1066 1063 1063 1063 1063 1060 1060 1060 1063 1063 1063 1063 1063 1063 1060 1063 1060 1060 1060 1060 1060 1060 1060 1056 1056 1056 1056 1056 1056 1060 1056 1056 1056 1056 1056 1056 1056 1056 1056 1056 1056 1056 1056 1056 1056 1056 1056 1053 1053 1053 1053 1053 1053 1053 1056 1056 1056 1056 1053 1053 1050 1050 1050 1047 1047 1050 1050 1047 1047 1047 1047 1047 1047 1044 1047 1047 1047 1047 1044 1044 1044 1044 1044 1044 1044 1044 1044 1044 1044 1044 1044 1044 1044 1040 1040 1044 1044 1044 1044 1044 1040 1040 1040 1040 1040 1037 1037 1037 1037 1037 1037 1037 1037 1037 1037 1037 1037 1037 1037 1034 1034 1034 1034 1034 1034 1034 1034 1034 1034 1034 1031 1031 1031 1031 1031 1031 1031 1031 1031 1028 1028 1028 1028 1028 1028 1031 1031 1034 1034 1031 1034    0    0    0    0    0    0    0    0    0    0    0    0    0    0    0    0    0    0    0    0    0    0    0    0    0  981  981  981  981  981  981  981  978  981  984  984  984  984  984    0    0    0    0    0 1019 1019 1019 1019 1016 1016 1019 1016 1016 1016 1016 1016 1013 1013 1013 1013 1013 1010 1007 1010 1013 1013 1013 1010 1013 1013 1010 1010 1010 1010 1007 1010 1010 1010 1010 1010 1007 1007 1007 1010 1010 1010 1007 1007 1010 1007 1007 1007 1004 1007 1007 1004 1004 1004 1004 1004 1004 1001 1001 1001 1004 1004 1004 1004 1004 1001 1001 1001  998  998  998  998  998  998  995  995  995  995  995  995  995  995  995  995  993  995  993  993  993  993  993  993  993  993  993  993  990  993  990  990  987  987  987  987  990  987  987  990  990  987  987  987  987  987  987  984  984  984  984  984  984  984  984  981  981  981  981  981  981  981  981  981  981  981  981  981  981  981  978  978  978  978  978  978  978  978  978
1100 1100 1100 1100 1100 1100 1100 1100 1100 1100 1097 1097 1097 1097 1097 1097 1093 1093 1093 1093 1093 1093 1097 1097 1097 1097 1097 1097 1097 1097 1097 1097 1100 1097 1097 1097 1097 1097 1097 1093 1093 1093 1090 1090 1090 1090 1090 1093 1093 1093 1097 1097 1097 1100 1100 1104 1111 1114 1122 1122 1122 1125 1125 1125 1125 1122 1122 1118 1118 1118 1114 1114 1114 1114 1114 1118 1118 1118 1118 1118 1118 1118 1114 1114 1114 1114 1114 1114 1114 1114 1118 1114 1114 1114 1114 1114 1114 1114 1114 1114 1114 1114 1114 1111 1111 1111 1111 1111 1111 1111 1107 1107 1107 1107 1107 1107 1107 1107 1107 1107 1107 1107 1107 1107 1104 1104 1104 1104 1100 1100 1100 1100 1100 1100 1100 1104 1100 1100 1100 1100 1100 1100 1100 1100 1100 1100 1100 1100 1100 1100 1100 1100 1097 1100 1100 1100 1100 1100 1097 1100 1097 1097 1097 1097 1093 1093 1093 1093 1093 1093 1093 1093 1093 1093 1093 1093 1093 1097 1093 1093 1093 1093 1090 1090 1090 1086 1086 1086 1086 1086 1086 1086 1086 1086 1086 1086 1083 1083 1083 1083 1083 1079 1083 1079 1083 1079 1079 1079 1079 1079 1079 1079 1079 1076 1076 1076 1076 1076 1076 1079 1079 1076 1076 1076 1073 1073 1073 1073 1073 1073 1073 1073 1073 1073 1073 1073 1073 1073 1073 1069 1069 1069 1069 1069 1069 1066 1066 1066 1066 1066 1066 1066 1066 1066 1066 1066 1063 1063 1063 1063 1060 1063 1063 1063 1063 1063 1063 1063 1063 1060 1060 1060 1060 1060 1060 1060 1060 1060 1056 1056 1056 1056 1056 1056 1060 1056 1056 1056 1056 1056 1056 1056 1056 1056 1056 1056 1056 1056 1056 1056 1056 1056 1056 1053 1056 1053 1056 1053 1053 1056 1056 1056 1053 1053 1050 1050 1050 1050 1047 1047 1050 1050 1047 1047 1047 1047 1047 1047 1047 1047 1047 1047 1047 1044 1044 1044 1044 1044 1044 1044 1044 1044 1044 1044 1044 1044 1044 1044 1044 1040 1044 1044 1044 1044 1044 1040 1040 1040 1040 1040 1037 1037 1037 1037 1037 1037 1037 1037 1037 1037 1037 1037 1037 1034 1034 1034 1034 1034 1034 1034 1034 1034 1034 1031 1031 1031 1031 1031 1031 1031 1031 1031 1031 1028 1028 1028 1025 1025 1028 1028 1028 1028 1031 1031 1037 1031    0    0    0    0    0    0    0    0    0    0    0    0    0    0    0    0    0    0    0    0    0    0    0    0    0  981  981  981  981  981  981  981  981  981  981    0    0    0    0    0    0    0    0    0 1019 1019 1019 1019 1016 1016 1019 1016 1016 1016 1016 1016 1013 1013 1013 1013 1010 1010 1007 1010 1010 1013 1013 1010 1013 1013 1013 1010 1010 1010 1010 1010 1010 1010 1010 1010 1007 1007 1010 1010 1010 1007 1007 1007 1010 1007 1007 1007 1004 1007 1007 1007 1004 1004 1004 1004 1004 1004 1004 1001 1004 1004 1004 1004 1004 1001 1001 1001  998  998  998  998  998  998  998  995  995  995  995  995  995  995  995  995  995  993  993  993  993  993  993  993  993  993  993  990  990  990  990  990  990  990  987  987  990  990  987  987  987  987  987  987  987  984  987  984  984  984  984  984  984  984  981  981  981  981  981  981  981  981  981  981  981  981  981  981  981  981  978  978  978  978  976  976  976  976  976
1097 1100 1100 1097 1097 1097 1097 1097 1097 1097 1097 1097 1097 1097 1097 1097 1093 1093 1093 1093 1093 1093 1097 1097 1097 1097 1097 1097 1097 1097 1097 1097 1097 1097 1097 1097 1097 1093 1093 1093 1093 1090 1090 1090 1090 1090 1090 1093 1093 1097 1097 1097 1100 1100 1104 1107 1111 1118 1122 1122 1122 1122 1125 1122 1122 1122 1122 1118 1118 1114 1114 1114 1114 1114 1114 1118 1118 1118 1118 1118 1118 1118 1114 1114 1114 1114 1114 1114 1114 1118 1118 1114 1118 1114 1114 1114 1114 1114 1114 1114 1114 1114 1114 1111 1111 1111 1111 1111 1111 1111 1107 1107 1107 1107 1107 1107 1107 1107 1107 1107 1107 1107 1107 1107 1104 1104 1104 1100 1100 1100 1100 1100 1100 1100 1100 1104 1100 1100 1104 1100 1100 1100 1100 1100 1100 1100 1100 1100 1100 1100 1100 1097 1097 1100 1097 1097 1100 1097 1097 1097 1097 1097 1097 1097 1093 1093 1093 1093 1093 1093 1093 1093 1093 1093 1093 1093 1093 1093 1093 1093 1093 1093 1090 1090 1090 1090 1086 1086 1086 1086 1086 1086 1086 1086 1086 1086 1083 1083 1083 1083 1083 1079 1083 1079 1079 1079 1079 1079 1079 1079 1079 1079 1079 1076 1076 1076 1076 1076 1076 1079 1076 1076 1073 1073 1073 1073 1069 1073 1073 1073 1073 1073 1073 1073 1073 1073 1073 1073 1073 1073 1069 1069 1069 1069 1069 1069 1066 1066 1066 1066 1066 1066 1066 1066 1063 1063 1063 1063 1063 1063 1060 1063 1063 1063 1063 1063 1063 1063 1063 1060 1060 1060 1060 1060 1060 1060 1056 1060 1056 1056 1056 1056 1056 1056 1060 1056 1060 1056 1056 1056 1056 1056 1056 1056 1056 1056 1056 1056 1056 1056 1056 1056 1053 1053 1056 1056 1056 1053 1053 1053 1053 1056 1053 1050 1050 1050 1050 1050 1047 1047 1047 1050 1047 1047 1047 1047 1047 1047 1047 1044 1044 1044 1047 1044 1044 1044 1044 1044 1044 1044 1044 1044 1044 1044 1044 1044 1044 1044 1040 1040 1044 1044 1044 1044 1044 1040 1040 1040 1040 1040 1037 1037 1037 1037 1037 1037 1037 1037 1037 1037 1037 1037 1037 1034 1034 1034 1034 1034 1034 1034 1034 1031 1031 1031 1031 1031 1031 1031 1031 1031 1028 1028 1028 1028 1028 1025 1025 1025 1028 1028 1028 1028 1031 1031 1034 1037 1037    0    0    0    0    0    0    0    0    0    0    0    0    0    0    0    0    0    0    0    0    0    0    0    0    0    0  981  981  981    0    0    0    0    0    0    0    0    0    0    0    0    0 1016 1016 1016 1016 1016 1016 1016 1016 1016 1016 1013 1016 1016 1013 1013 1013 1013 1013 1013 1010 1010 1010 1010 1010 1010 1010 1010 1010 1010 1010 1010 1010 1010 1010 1010 1010 1010 1010 1010 1010 1010 1010 1010 1007 1007 1007 1007 1007 1007 1004 1007 1007 1004 1004 1004 1004 1004 1001 1001 1004 1001 1004 1004 1004 1004 1004 1001 1001 1001  998  998  998  998  998  998  995  995  995  995  995  995  995  995  995  995  995  993  993  993  993  993  993  993  993  993  990  990  987  990  990  987  987  987  987  987  987  987  987  987  987  987  987  987  984  984  987  984  984  984  984  984  984  984  984  981  981  981  981  981  981  981  981  981  981  981  981  984  984  981  981  978  978  978  976  976  976  976  976
1097 1097 1100 1097 1097 1097 1097 1097 1097 1097 1097 1097 1097 1097 1097 1093 1093 1093 1093 1093 1093 1093 1097 1097 1097 1097 1097 1097 1097 1097 1097 1097 1097 1097 1097 1097 1093 1093 1093 1090 1090 1090 1086 1090 1086 1090 1090 1090 1093 1097 1097 1097 1100 1100 1104 1107 1114 1118 1122 1122 1122 1122 1122 1122 1122 1122 1118 1118 1114 1114 1114 1114 1114 1114 1114 1118 1118 1118 1118 1118 1118 1118 1114 1114 1114 1114 1114 1114 1114 1114 1114 1114 1114 1114 1114 1114 1114 1114 1114 1114 1114 1114 1114 1114 1111 1111 1111 1111 1111 1111 1111 1111 1107 1107 1107 1107 1107 1107 1107 1107 1107 1107 1107 1107 1104 1104 1100 1100 1100 1100 1100 1100 1100 1100 1100 1104 1100 1104 1104 1100 1100 1100 1100 1100 1100 1100 1100 1100 1100 1100 1100 1100 1097 1100 1100 1097 1100 1097 1097 1097 1097 1097 1097 1097 1093 1093 1097 1093 1093 1093 1093 1093 1093 1093 1093 1093 1093 1093 1093 1093 1093 1093 1090 1090 1090 1090 1086 1090 1086 1086 1086 1086 1086 1086 1086 1086 1083 1083 1083 1083 1079 1079 1079 1079 1079 1079 1079 1079 1079 1079 1076 1076 1076 1076 1076 1076 1076 1076 1076 1079 1079 1076 1076 1076 1073 1073 1073 1073 1073 1073 1073 1073 1073 1073 1073 1073 1073 1073 1073 1073 1069 1069 1069 1069 1069 1066 1066 1066 1066 1066 1066 1066 1066 1063 1063 1063 1063 1063 1063 1063 1060 1060 1063 1063 1063 1063 1063 1063 1063 1063 1060 1060 1060 1060 1056 1056 1056 1056 1056 1056 1056 1056 1056 1056 1060 1056 1060 1056 1056 1056 1056 1056 1056 1056 1056 1056 1056 1056 1056 1056 1056 1056 1053 1053 1056 1056 1056 1056 1056 1056 1056 1056 1053 1050 1050 1050 1050 1050 1047 1047 1047 1050 1047 1047 1047 1047 1047 1047 1047 1044 1047 1047 1047 1044 1044 1044 1044 1044 1044 1044 1044 1044 1044 1044 1044 1044 1044 1044 1040 1040 1044 1044 1044 1044 1044 1040 1040 1040 1040 1040 1037 1037 1037 1037 1037 1037 1037 1037 1037 1037 1037 1037 1034 1034 1034 1034 1034 1034 1034 1034 1031 1031 1031 1031 1031 1031 1031 1031 1031 1031 1028 1031 1031 1028 1028 1025 1025 1025 1025 1028 1028 1028 1031 1031 1034 1037 1034    0    0    0    0    0    0    0    0    0    0    0    0    0    0    0    0    0    0    0    0    0    0    0    0  973    0    0    0    0    0    0    0    0    0    0    0    0    0    0 1016 1016 1016 1013 1019 1019 1016 1016 1016 1016 1016 1016 1016 1016 1016 1016 1013 1013 1013 1013 1013 1010 1010 1010 1010 1010 1010 1010 1010 1010 1010 1010 1010 1010 1010 1010 1010 1010 1010 1010 1010 1010 1010 1010 1010 1010 1007 1007 1010 1007 1007 1007 1007 1007 1007 1007 1004 1004 1004 1001 1001 1001 1004 1001 1004 1001 1004 1004 1004 1001 1001 1001  998  998  998  998  998  998  995  995  995  995  995  995  995  995  995  995  995  993  993  993  993  993  993  993  993  993  993  993  990  990  990  990  987  990  987  987  987  987  987  987  987  987  987  987  984  984  984  984  984  984  984  984  984  984  984  981  981  981  981  981  981  981  981  981  981  981  981  984  984  984  981  981  981  978  976  978  976  976  976
1097 1097 1097 1097 1097 1097 1097 1097 1097 1097 1093 1093 1097 1097 1097 1093 1097 1093 1097 1093 1093 1093 1097 1097 1097 1097 1097 1097 1097 1097 1097 1097 1097 1097 1097 1093 1093 1090 1090 1090 1090 1086 1086 1090 1090 1090 1090 1093 1093 1097 1097 1097 1100 1104 1104 1111 1114 1118 1122 1122 1122 1125 1122 1122 1122 1122 1118 1118 1114 1114 1114 1114 1114 1114 1114 1118 1118 1118 1118 1118 1118 1118 1114 1114 1114 1114 1111 1111 1114 1114 1114 1114 1114 1114 1114 1114 1114 1114 1114 1114 1114 1114 1114 1114 1111 1111 1111 1111 1111 1111 1111 1111 1107 1107 1107 1107 1107 1107 1107 1107 1107 1107 1107 1107 1104 1104 1100 1100 1100 1100 1100 1100 1100 1104 1100 1104 1100 1100 1100 1100 1100 1100 1100 1100 1100 1100 1100 1100 1100 1100 1100 1100 1100 1100 1100 1100 1100 1097 1097 1097 1097 1097 1097 1097 1097 1097 1097 1093 1093 1093 1093 1093 1093 1093 1093 1093 1093 1093 1093 1093 1090 1090 1090 1090 1090 1090 1086 1086 1086 1086 1086 1086 1086 1086 1083 1083 1083 1083 1083 1083 1079 1079 1079 1079 1079 1079 1079 1079 1079 1079 1076 1076 1076 1076 1076 1076 1076 1076 1076 1079 1076 1076 1076 1076 1073 1073 1073 1073 1073 1073 1073 1073 1073 1069 1069 1069 1069 1069 1069 1069 1069 1069 1069 1069 1066 1066 1066 1066 1066 1066 1066 1066 1066 1063 1063 1063 1063 1063 1063 1063 1060 1060 1063 1063 1063 1063 1063 1063 1063 1060 1060 1060 1060 1056 1056 1056 1056 1056 1056 1056 1056 1056 1056 1056 1060 1056 1060 1056 1056 1056 1056 1056 1056 1056 1056 1056 1056 1056 1056 1056 1056 1056 1053 1053 1053 1053 1056 1053 1053 1053 1053 1053 1053 1050 1050 1050 1050 1047 1047 1047 1047 1047 1047 1047 1047 1047 1047 1044 1044 1044 1047 1047 1047 1047 1044 1044 1044 1044 1044 1044 1044 1044 1044 1044 1044 1044 1044 1044 1040 1040 1044 1044 1044 1044 1044 1040 1040 1040 1040 1037 1037 1037 1037 1037 1037 1037 1037 1037 1037 1034 1034 1034 1034 1034 1034 1034 1034 1034 1034 1034 1031 1031 1031 1028 1028 1028 1028 1028 1031 1031 1028 1031 1028 1028 1025 1025 1025 1025 1025 1025 1028 1028 1031 1031 1034 1034 1037 1037    0    0    0    0    0    0    0    0    0    0    0    0    0    0    0    0    0    0    0    0    0    0    0  970    0    0    0    0    0    0    0    0 1016 1016 1016 1016 1016 1016 1016 1016 1013 1016 1016 1019 1016 1016 1016 1016 1016 1016 1013 1013 1016 1016 1013 1013 1013 1013 1013 1010 1010 1010 1010 1010 1010 1010 1010 1010 1010 1010 1010 1010 1010 1010 1010 1010 1010 1010 1007 1007 1010 1010 1010 1007 1007 1007 1007 1007 1007 1007 1007 1007 1004 1004 1004 1004 1004 1001 1001 1001 1004 1001 1004 1001 1001 1004 1004 1001  998  998  998  998  998  995  998  995  995  995  995  995  995  995  995  995  995  995  995  993  993  993  993  993  993  993  993  993  993  993  990  993  990  990  987  987  987  987  987  987  987  987  987  984  984  984  984  984  984  984  984  984  984  984  984  984  984  984  981  981  981  981  981  981  981  981  981  981  981  984  984  984  981  981  981  981  978  978  976  976  976
1100 1100 1100 1097 1097 1097 1097 1097 1097 1093 1093 1093 1093 1093 1093 1093 1093 1093 1097 1093 1093 1093 1097 1097 1097 1097 1097 1097 1097 1093 1093 1093 1093 1093 1093 1090 1090 1086 1086 1086 1086 1086 1086 1086 1086 1090 1090 1093 1093 1093 1097 1097 1100 1104 1107 1114 1118 1122 1122 1122 1122 1125 1125 1122 1122 1118 1118 1118 1114 1114 1114 1114 1114 1114 1114 1114 1114 1114 1114 1118 1118 1118 1114 1114 1114 1114 1111 1111 1114 1114 1114 1114 1114 1114 1114 1114 1114 1114 1114 1114 1114 1114 1114 1114 1111 1114 1114 1111 1111 1111 1111 1111 1107 1107 1107 1107 1107 1107 1107 1107 1107 1107 1104 1107 1104 1104 1100 1100 1100 1100 1100 1100 1100 1104 1100 1100 1100 1100 1100 1100 1100 1100 1100 1100 1100 1100 1100 1100 1100 1100 1100 1100 1100 1100 1100 1100 1100 1100 1097 1097 1097 1097 1097 1097 1093 1093 1093 1093 1093 1093 1093 1093 1093 1093 1093 1093 1093 1093 1093 1093 1090 1090 1090 1090 1090 1090 1086 1086 1086 1086 1086 1086 1086 1086 1083 1083 1083 1083 1083 1079 1079 1079 1079 1079 1079 1079 1079 1079 1079 1079 1076 1076 1076 1076 1076 1076 1076 1076 1076 1079 1076 1076 1073 1076 1073 1073 1073 1073 1073 1073 1073 1073 1073 1069 1069 1069 1069 1069 1069 1069 1069 1069 1069 1069 1066 1066 1066 1066 1066 1066 1066 1066 1066 1063 1063 1063 1063 1063 1063 1063 1063 1063 1063 1063 1063 1063 1063 1063 1063 1060 1060 1060 1060 1056 1056 1056 1056 1056 1056 1056 1056 1056 1056 1056 1060 1056 1056 1056 1056 1056 1056 1056 1056 1056 1056 1056 1056 1056 1056 1056 1056 1053 1053 1053 1053 1053 1056 1053 1053 1056 1056 1053 1053 1050 1050 1050 1050 1047 1047 1047 1047 1047 1047 1047 1047 1047 1047 1047 1044 1044 1047 1047 1047 1044 1044 1044 1044 1044 1044 1044 1044 1044 1044 1044 1044 1044 1044 1044 1040 1040 1044 1040 1040 1040 1040 1040 1040 1037 1037 1037 1037 1037 1037 1037 1037 1037 1037 1037 1037 1034 1034 1034 1034 1034 1034 1034 1034 1034 1034 1031 1031 1031 1031 1028 1028 1028 1028 1028 1028 1028 1028 1028 1028 1028 1025 1025 1025 1025 1025 1025 1025 1028 1028 1028 1031 1031 1034 1028    0    0    0    0    0    0    0    0    0    0    0    0    0    0    0    0    0    0    0    0    0    0    0    0    0 1025    0    0    0 1016 1016 1016 1016 1016 1013 1013 1016 1016 1016 1016 1016 1016 1019 1019 1016 1016 1016 1016 1016 1016 1013 1013 1016 1016 1013 1013 1013 1013 1013 1013 1010 1010 1010 1010 1010 1010 1010 1010 1010 1010 1010 1007 1010 1010 1010 1007 1010 1010 1007 1007 1007 1010 1007 1007 1007 1007 1007 1007 1007 1007 1007 1004 1004 1004 1004 1004 1004 1001 1001 1001 1004 1001 1004 1001 1004 1004 1004 1001 1001  998  998  998  998  995  995  995  995  995  995  995  995  995  995  995  995  995  993  993  993  993  993  993  993  993  993  993  993  993  990  993  993  990  990  990  987  987  987  987  987  987  987  984  984  984  984  984  984  984  984  984  984  984  984  984  984  984  984  984  984  981  981  981  981  984  981  981  984  984  984  984  981  981  981  981  978  978  976  976  976
1100 1100 1097 1097 1097 1097 1097 1097 1093 1093 1093 1093 1093 1093 1093 1093 1093 1093 1097 1093 1093 1093 1097 1097 1097 1097 1093 1093 1093 1093 1090 1090 1090 1090 1090 1090 1086 1086 1086 1086 1086 1086 1086 1086 1086 1086 1090 1093 1093 1093 1097 1097 1100 1104 1111 1114 1122 1122 1122 1125 1125 1125 1125 1122 1122 1118 1118 1118 1114 1114 1114 1114 1114 1114 1114 1114 1114 1114 1114 1114 1114 1114 1114 1114 1111 1111 1111 1111 1114 1114 1114 1114 1114 1114 1114 1114 1114 1114 1114 1114 1114 1114 1114 1114 1114 1114 1114 1114 1111 1111 1111 1111 1107 1107 1107 1107 1107 1107 1107 1107 1107 1104 1104 1104 1104 1104 1100 1100 1100 1100 1100 1100 1100 1104 1100 1100 1100 1100 1100 1100 1100 1100 1100 1100 1100 1100 1100 1100 1100 1100 1100 1100 1100 1100 1100 1100 1097 1097 1097 1097 1097 1097 1097 1093 1093 1093 1093 1093 1093 1093 1093 1093 1093 1093 1093 1093 1093 1093 1093 1093 1090 1090 1090 1090 1090 1090 1086 1090 1086 1086 1086 1086 1086 1086 1083 1083 1083 1083 1083 1079 1079 1079 1079 1079 1079 1079 1076 1079 1079 1076 1076 1076 1076 1076 1076 1076 1076 1076 1076 1079 1076 1076 1073 1076 1073 1073 1073 1073 1073 1073 1073 1073 1073 1069 1069 1069 1069 1069 1069 1069 1069 1069 1069 1066 1066 1066 1066 1066 1066 1066 1066 1066 1066 1063 1063 1063 1063 1063 1063 1063 1063 1063 1063 1066 1063 1063 1063 1063 1063 1060 1060 1060 1060 1056 1056 1056 1056 1056 1056 1056 1056 1056 1056 1056 1056 1056 1056 1056 1056 1056 1056 1056 1056 1056 1056 1056 1056 1056 1056 1056 1056 1053 1053 1053 1053 1056 1056 1053 1056 1056 1056 1053 1053 1050 1050 1050 1050 1047 1047 1047 1047 1047 1047 1047 1047 1047 1047 1047 1044 1044 1047 1047 1047 1047 1047 1044 1044 1044 1044 1044 1044 1044 1044 1044 1044 1044 1044 1044 1040 1040 1044 1044 1044 1040 1040 1040 1040 1037 1037 1037 1037 1037 1037 1037 1037 1037 1037 1037 1037 1037 1037 1034 1034 1034 1034 1034 1034 1034 1034 1031 1031 1028 1028 1028 1028 1028 1028 1028 1028 1028 1028 1028 1028 1028 1025 1025 1025 1025 1025 1025 1025 1025 1028 1028 1028 1028 1028 1025 1025    0    0    0    0    0    0    0    0    0    0    0    0    0    0    0    0    0 1016 1016 1019 1022 1022 1022 1022 1022 1019 1019 1019 1016 1016 1016 1016 1016 1016 1013 1016 1016 1016 1016 1016 1016 1016 1019 1016 1016 1016 1016 1016 1016 1013 1013 1016 1016 1013 1013 1013 1013 1013 1013 1013 1010 1013 1013 1010 1010 1010 1010 1010 1010 1010 1007 1007 1010 1010 1007 1007 1007 1007 1007 1007 1007 1007 1007 1007 1007 1007 1007 1007 1007 1007 1004 1004 1004 1004 1004 1001 1001 1001 1001 1004 1004 1004 1001 1001 1004 1004 1001 1001  998  998  998  998  995  995  995  995  995  995  995  995  995  995  995  995  995  993  993  993  993  993  993  993  993  993  993  993  990  990  993  993  990  990  990  987  987  987  987  987  987  987  984  984  984  984  984  984  984  984  984  984  984  984  984  984  984  984  984  984  984  981  981  981  984  984  981  984  984  984  984  981  981  981  978  978  978  976  976  976
1100 1100 1100 1097 1097 1097 1097 1097 1093 1093 1093 1093 1093 1093 1093 1093 1093 1093 1097 1093 1093 1093 1097 1097 1097 1093 1093 1093 1090 1090 1090 1090 1086 1086 1086 1086 1086 1086 1083 1083 1083 1083 1086 1086 1086 1086 1090 1090 1093 1093 1097 1097 1100 1107 1111 1114 1122 1122 1122 1122 1122 1125 1122 1122 1122 1118 1118 1118 1114 1114 1114 1114 1114 1114 1114 1114 1114 1114 1114 1114 1114 1114 1114 1114 1114 1111 1111 1111 1114 1114 1114 1114 1114 1114 1114 1114 1114 1114 1114 1114 1114 1114 1114 1114 1114 1114 1114 1114 1114 1111 1111 1111 1107 1107 1107 1107 1107 1107 1107 1107 1104 1104 1104 1104 1104 1104 1104 1104 1104 1104 1104 1100 1104 1104 1100 1100 1100 1100 1100 1100 1100 1100 1100 1100 1100 1100 1100 1100 1100 1100 1100 1100 1097 1100 1100 1097 1097 1097 1097 1097 1097 1097 1097 1093 1093 1093 1093 1093 1093 1093 1093 1093 1093 1093 1093 1093 1093 1093 1093 1093 1090 1090 1090 1090 1090 1090 1090 1090 1086 1086 1086 1086 1086 1083 1083 1083 1083 1083 1083 1083 1079 1079 1079 1079 1079 1079 1076 1079 1076 1076 1076 1076 1076 1076 1076 1076 1076 1076 1076 1076 1076 1076 1073 1073 1073 1073 1073 1073 1073 1073 1073 1073 1073 1069 1069 1069 1069 1069 1069 1069 1066 1066 1066 1066 1066 1066 1066 1066 1066 1066 1066 1066 1063 1063 1063 1063 1063 1063 1063 1063 1063 1063 1066 1066 1063 1063 1063 1060 1060 1060 1060 1056 1056 1056 1056 1056 1056 1056 1056 1056 1056 1056 1056 1053 1056 1056 1056 1056 1056 1056 1056 1056 1056 1056 1056 1056 1056 1056 1056 1056 1056 1053 1053 1053 1053 1056 1056 1056 1056 1056 1056 1053 1053 1050 1050 1050 1047 1047 1047 1047 1047 1047 1047 1047 1047 1047 1047 1047 1044 1044 1047 1047 1047 1047 1047 1047 1047 1047 1044 1044 1044 1044 1044 1044 1044 1044 1040 1044 1040 1040 1044 1044 1044 1044 1040 1040 1040 1040 1037 1037 1037 1037 1037 1037 1037 1037 1037 1037 1037 1037 1037 1034 1034 1034 1034 1034 1034 1034 1034 1034 1031 1028 1031 1028 1028 1028 1028 1028 1028 1028 1028 1028 1028 1025 1025 1025 1025 1025 1025 1025 1025 1025 1025 1025 1028 1028 1025 1025 1025 1025 1022 1022    0    0    0    0    0    0    0    0    0    0    0    0 1016 1016 1019 1022 1022 1022 1022 1025 1025 1025 1022 1019 1019 1016 1016 1016 1016 1016 1016 1013 1016 1016 1016 1016 1016 1016 1016 1019 1016 1016 1016 1016 1016 1013 1013 1013 1016 1016 1013 1013 1013 1013 1013 1013 1013 1010 1013 1010 1010 1010 1010 1010 1010 1010 1007 1007 1010 1010 1010 1007 1007 1007 1007 1007 1007 1007 1007 1007 1007 1007 1007 1007 1007 1007 1007 1004 1004 1004 1004 1004 1004 1004 1004 1004 1004 1004 1004 1004 1001 1004 1001 1001 1001  998  998  998  998  995  998  995  995  995  995  995  995  995  995  995  995  993  993  993  993  993  993  993  993  993  990  993  993  990  990  993  993  993  990  990  987  987  987  987  987  987  987  984  984  984  984  984  984  984  984  984  984  984  984  984  984  984  984  984  984  984  981  984  981  984  981  981  984  984  984  984  981  981  981  981  978  978  976  976  976
1100 1100 1097 1097 1097 1097 1097 1097 1093 1093 1093 1093 1093 1093 1093 1093 1093 1093 1097 1093 1093 1093 1097 1097 1097 1093 1090 1093 1090 1086 1086 1086 1086 1086 1083 1083 1083 1083 1083 1083 1083 1083 1083 1083 1086 1086 1090 1090 1093 1093 1097 1100 1100 1107 1114 1118 1122 1122 1122 1122 1122 1125 1122 1122 1118 1118 1118 1118 1118 1114 1114 1114 1114 1114 1114 1114 1114 1114 1114 1114 1114 1114 1114 1114 1111 1111 1111 1111 1114 1114 1114 1114 1114 1114 1114 1114 1114 1114 1114 1114 1114 1114 1114 1114 1114 1114 1114 1114 1114 1111 1111 1111 1107 1107 1107 1107 1107 1107 1107 1107 1104 1104 1104 1104 1104 1104 1104 1104 1104 1104 1104 1104 1104 1104 1100 1100 1100 1100 1100 1100 1100 1100 1100 1100 1100 1100 1100 1100 1100 1100 1097 1097 1097 1100 1100 1097 1097 1097 1097 1097 1097 1093 1093 1093 1093 1093 1093 1093 1093 1093 1093 1093 1093 1093 1093 1093 1090 1093 1090 1090 1090 1090 1090 1090 1090 1090 1090 1090 1086 1086 1086 1086 1083 1083 1083 1083 1083 1083 1083 1083 1083 1079 1079 1079 1079 1079 1076 1079 1076 1076 1076 1076 1076 1076 1076 1076 1076 1076 1076 1076 1076 1076 1073 1073 1073 1073 1073 1073 1073 1073 1073 1073 1073 1069 1069 1069 1069 1069 1069 1069 1066 1066 1066 1066 1066 1066 1066 1066 1066 1066 1066 1066 1063 1063 1063 1063 1063 1063 1063 1063 1063 1063 1063 1066 1063 1063 1063 1060 1060 1060 1056 1056 1056 1056 1056 1056 1056 1056 1056 1056 1056 1056 1056 1053 1056 1056 1056 1056 1056 1056 1056 1056 1056 1056 1056 1056 1056 1056 1056 1056 1056 1053 1053 1053 1053 1056 1056 1056 1056 1056 1053 1053 1053 1050 1050 1050 1047 1047 1047 1047 1047 1047 1047 1047 1047 1047 1047 1047 1044 1044 1047 1047 1047 1047 1047 1047 1047 1047 1044 1044 1044 1044 1044 1044 1040 1040 1040 1040 1040 1040 1044 1044 1044 1040 1040 1040 1040 1037 1037 1037 1037 1037 1037 1037 1037 1037 1037 1037 1037 1037 1037 1037 1034 1034 1034 1034 1034 1034 1034 1031 1031 1028 1028 1025 1025 1028 1028 1028 1028 1028 1028 1028 1028 1028 1025 1025 1025 1025 1025 1025 1025 1025 1025 1025 1025 1025 1025 1025 1025 1022 1022 1022 1022    0    0    0    0    0    0    0    0    0 1016 1016 1013 1016 1016 1022 1019 1019 1022 1022 1022 1022 1019 1019 1019 1016 1016 1016 1016 1016 1016 1013 1016 1016 1016 1016 1016 1016 1016 1016 1016 1016 1016 1016 1016 1013 1013 1013 1013 1013 1013 1013 1013 1013 1013 1013 1013 1013 1013 1013 1010 1010 1010 1010 1010 1010 1007 1007 1007 1010 1010 1007 1007 1007 1007 1007 1007 1007 1007 1007 1007 1007 1007 1007 1007 1007 1007 1004 1004 1004 1004 1004 1004 1004 1004 1004 1004 1004 1004 1004 1001 1004 1004 1001 1001 1001  998  998  998  995  995  995  995  995  995  995  995  995  995  995  995  993  993  993  993  993  993  990  990  990  990  990  990  990  990  993  993  993  990  990  987  987  987  987  987  987  987  984  987  984  984  984  984  984  984  984  984  984  984  984  984  984  984  984  984  984  984  984  984  984  984  984  984  984  984  984  981  981  981  981  978  978  976  976  976
1097 1097 1097 1097 1097 1097 1093 1093 1093 1093 1093 1093 1093 1093 1093 1093 1093 1093 1097 1093 1093 1093 1097 1097 1093 1090 1090 1090 1090 1086 1086 1083 1083 1083 1083 1083 1083 1083 1083 1083 1083 1083 1083 1086 1086 1086 1086 1090 1090 1093 1097 1097 1100 1107 1114 1118 1122 1122 1122 1122 1122 1122 1122 1118 1118 1118 1118 1118 1118 1118 1114 1114 1114 1114 1114 1114 1114 1114 1111 1111 1111 1111 1111 1111 1111 1111 1111 1111 1114 1114 1114 1114 1114 1114 1114 1114 1114 1114 1114 1114 1114 1114 1114 1114 1114 1114 1114 1114 1114 1111 1111 1111 1107 1107 1107 1107 1107 1107 1107 1107 1104 1104 1104 1104 1104 1104 1104 1104 1104 1104 1104 1100 1104 1100 1100 1100 1100 1100 1100 1100 1100 1100 1100 1100 1100 1100 1100 1100 1100 1100 1097 1097 1097 1097 1100 1097 1097 1097 1097 1097 1097 1093 1093 1093 1093 1093 1093 1093 1093 1093 1093 1093 1093 1093 1090 1090 1090 1090 1090 1090 1090 1090 1090 1090 1090 1090 1090 1090 1090 1086 1086 1086 1083 1083 1083 1083 1083 1083 1083 1083 1079 1079 1079 1079 1079 1079 1076 1076 1076 1076 1076 1076 1076 1076 1076 1076 1076 1076 1076 1079 1076 1076 1073 1073 1073 1073 1073 1073 1073 1073 1073 1073 1069 1069 1069 1069 1069 1069 1066 1066 1066 1066 1066 1066 1066 1066 1066 1066 1066 1066 1066 1063 1063 1063 1063 1063 1063 1060 1060 1063 1063 1063 1063 1063 1063 1063 1063 1060 1060 1060 1056 1056 1056 1056 1056 1056 1056 1056 1056 1056 1056 1056 1056 1053 1056 1056 1056 1056 1056 1056 1056 1056 1056 1056 1056 1056 1056 1056 1053 1053 1053 1053 1053 1053 1053 1053 1056 1053 1056 1056 1053 1053 1050 1050 1050 1047 1047 1047 1047 1047 1047 1047 1047 1047 1047 1047 1047 1047 1044 1044 1047 1047 1047 1047 1047 1047 1047 1047 1044 1044 1044 1044 1044 1044 1044 1044 1040 1040 1040 1040 1044 1044 1044 1040 1040 1040 1040 1037 1037 1037 1037 1037 1040 1037 1037 1037 1037 1037 1037 1037 1037 1037 1034 1034 1034 1034 1034 1034 1034 1031 1031 1028 1028 1025 1025 1028 1028 1028 1028 1028 1028 1028 1028 1028 1025 1025 1025 1025 1025 1025 1025 1025 1025 1025 1025 1025 1025 1025 1025 1022 1022 1022 1022 1022 1022 1022    0    0    0    0    0 1016 1016 1013 1016 1019 1019 1022 1022 1025 1022 1022 1022 1019 1019 1019 1016 1016 1016 1016 1016 1016 1016 1016 1016 1016 1016 1016 1016 1016 1016 1016 1016 1016 1016 1016 1016 1013 1013 1013 1013 1013 1013 1013 1013 1013 1013 1013 1013 1010 1013 1013 1010 1010 1010 1010 1010 1007 1007 1007 1007 1007 1010 1007 1007 1007 1007 1007 1007 1007 1007 1007 1007 1007 1007 1007 1007 1007 1004 1004 1004 1004 1004 1004 1004 1004 1001 1004 1004 1004 1004 1001 1001 1001 1001 1001  998  998  998  998  998  995  998  995  995  995  995  995  995  995  995  995  995  993  993  993  993  993  993  993  990  990  990  990  990  990  990  993  993  993  990  990  987  987  987  987  987  987  987  984  984  984  984  984  984  984  984  984  984  984  984  984  984  984  984  984  984  984  984  984  981  984  984  984  984  984  984  981  981  981  981  981  978  978  976  976  976
1097 1097 1097 1097 1097 1097 1093 1093 1093 1093 1093 1093 1090 1093 1093 1093 1093 1093 1093 1093 1093 1093 1093 1093 1090 1086 1086 1086 1086 1083 1083 1083 1083 1083 1079 1079 1083 1083 1079 1079 1083 1083 1083 1083 1086 1086 1086 1090 1090 1093 1093 1097 1100 1111 1114 1118 1122 1122 1122 1118 1122 1122 1122 1118 1118 1118 1118 1118 1118 1118 1114 1114 1114 1114 1114 1114 1114 1114 1111 1111 1111 1111 1111 1111 1111 1111 1111 1111 1114 1114 1114 1114 1114 1114 1114 1111 1114 1114 1114 1114 1114 1114 1114 1114 1114 1111 1114 1114 1114 1111 1111 1107 1107 1107 1107 1107 1107 1107 1107 1104 1104 1104 1104 1104 1104 1104 1104 1104 1104 1104 1104 1100 1100 1100 1100 1100 1100 1100 1100 1100 1100 1100 1100 1100 1100 1100 1100 1100 1100 1097 1097 1097 1093 1097 1097 1097 1093 1093 1097 1093 1093 1093 1093 1093 1093 1093 1093 1093 1093 1093 1093 1093 1093 1090 1090 1090 1090 1093 1090 1090 1090 1090 1090 1090 1090 1090 1090 1090 1086 1086 1086 1083 1083 1083 1083 1083 1083 1083 1083 1083 1079 1079 1079 1079 1079 1079 1076 1076 1076 1076 1076 1076 1076 1076 1076 1076 1076 1076 1076 1079 1079 1079 1076 1076 1076 1076 1073 1073 1073 1069 1073 1073 1069 1069 1069 1069 1069 1069 1069 1066 1066 1066 1066 1066 1066 1066 1066 1066 1066 1066 1066 1066 1063 1063 1063 1063 1063 1060 1060 1063 1063 1063 1063 1063 1063 1063 1063 1060 1060 1060 1056 1056 1056 1056 1056 1056 1056 1056 1056 1056 1056 1056 1056 1053 1056 1056 1056 1056 1056 1056 1056 1056 1056 1056 1056 1056 1056 1053 1053 1053 1053 1053 1053 1053 1053 1053 1056 1056 1056 1056 1053 1053 1050 1050 1050 1047 1047 1047 1047 1047 1047 1047 1047 1047 1047 1047 1047 1047 1044 1044 1047 1047 1047 1047 1047 1047 1047 1047 1044 1044 1044 1044 1044 1044 1044 1044 1040 1044 1040 1040 1044 1044 1044 1040 1040 1040 1040 1037 1037 1037 1037 1037 1040 1037 1037 1037 1037 1037 1037 1037 1034 1034 1034 1034 1034 1034 1034 1034 1034 1031 1031 1028 1028 1028 1028 1028 1028 1028 1028 1028 1028 1028 1028 1028 1025 1025 1025 1025 1025 1025 1025 1025 1025 1022 1025 1022 1022 1022 1022 1022 1022 1022 1022 1022 1022 1022 1022 1022 1022 1022 1022 1016 1016 1016 1016 1019 1019 1022 1022 1025 1022 1022 1022 1019 1019 1019 1016 1016 1016 1016 1016 1016 1016 1016 1016 1016 1016 1016 1016 1016 1016 1016 1016 1016 1016 1016 1013 1013 1013 1013 1013 1013 1013 1013 1013 1013 1013 1013 1013 1010 1013 1013 1010 1010 1010 1010 1007 1007 1007 1007 1004 1007 1007 1007 1007 1007 1007 1007 1007 1007 1007 1007 1007 1007 1007 1007 1007 1007 1004 1004 1004 1004 1004 1004 1004 1004 1004 1004 1004 1004 1004 1001 1001 1001 1001 1001  998  998  998  998  998  995  995  995  995  995  995  995  995  995  995  995  993  993  993  993  993  993  993  993  990  990  990  990  990  990  990  993  993  993  993  990  990  987  987  987  984  987  984  984  984  984  984  987  984  984  984  984  984  984  984  984  984  984  984  981  984  984  984  984  981  981  981  981  981  981  981  981  981  978  978  978  978  976  976  976  976
1097 1097 1097 1097 1097 1093 1093 1093 1093 1093 1093 1093 1090 1090 1093 1093 1093 1093 1093 1090 1090 1090 1090 1090 1086 1083 1083 1086 1083 1079 1083 1079 1079 1079 1079 1079 1079 1083 1079 1079 1083 1083 1083 1083 1086 1086 1086 1090 1090 1093 1093 1097 1100 1114 1118 1122 1125 1122 1122 1122 1122 1122 1122 1118 1118 1118 1118 1118 1118 1118 1114 1114 1114 1114 1114 1114 1114 1114 1111 1111 1111 1111 1111 1111 1111 1111 1111 1111 1114 1114 1114 1114 1114 1114 1114 1114 1114 1114 1114 1114 1114 1111 1111 1111 1111 1111 1111 1111 1111 1111 1107 1107 1107 1107 1107 1107 1107 1104 1104 1104 1104 1104 1104 1104 1104 1104 1104 1104 1104 1104 1104 1100 1100 1100 1100 1100 1100 1100 1100 1100 1100 1100 1100 1100 1100 1100 1100 1097 1097 1097 1093 1093 1093 1093 1097 1093 1093 1093 1093 1093 1093 1093 1093 1093 1093 1093 1093 1093 1093 1093 1093 1093 1090 1090 1090 1090 1090 1090 1090 1090 1090 1090 1090 1090 1090 1090 1090 1090 1086 1086 1086 1083 1083 1083 1083 1083 1083 1083 1083 1083 1079 1079 1079 1079 1079 1079 1076 1079 1076 1076 1076 1076 1076 1076 1076 1076 1076 1076 1076 1079 1076 1076 1076 1076 1076 1076 1073 1073 1073 1069 1073 1073 1069 1069 1069 1069 1069 1069 1069 1066 1066 1066 1066 1066 1066 1066 1066 1066 1066 1066 1066 1066 1066 1066 1066 1063 1063 1060 1063 1063 1063 1063 1063 1063 1063 1063 1060 1060 1056 1056 1056 1056 1056 1056 1056 1056 1056 1056 1056 1056 1056 1056 1056 1053 1056 1056 1056 1056 1056 1056 1056 1056 1056 1056 1056 1056 1056 1053 1053 1053 1053 1053 1050 1053 1053 1053 1053 1053 1056 1056 1053 1050 1050 1050 1050 1047 1047 1047 1047 1047 1047 1047 1047 1047 1047 1047 1047 1047 1044 1044 1047 1047 1047 1044 1044 1044 1044 1044 1044 1044 1044 1044 1044 1044 1044 1044 1040 1040 1040 1040 1044 1044 1044 1040 1040 1040 1037 1037 1037 1037 1037 1037 1040 1037 1037 1037 1037 1037 1037 1037 1034 1034 1034 1034 1034 1034 1034 1031 1031 1028 1028 1028 1028 1028 1025 1028 1028 1028 1028 1028 1028 1028 1028 1028 1025 1025 1025 1025 1025 1025 1025 1025 1025 1022 1022 1022 1022 1022 1022 1022 1022 1022 1022 1022 1022 1025 1022 1022 1022 1016 1019 1022 1025 1025 1025 1022 1022 1022 1022 1025 1022 1022 1022 1019 1019 1019 1016 1016 1016 1016 1016 1016 1016 1016 1016 1016 1016 1016 1016 1016 1016 1016 1016 1016 1016 1013 1013 1013 1013 1013 1013 1013 1013 1010 1013 1013 1013 1013 1010 1010 1013 1013 1010 1010 1010 1007 1007 1007 1007 1007 1004 1007 1007 1007 1007 1007 1007 1007 1007 1007 1007 1007 1007 1007 1007 1007 1007 1004 1004 1004 1004 1001 1004 1004 1004 1001 1004 1004 1004 1004 1004 1001 1001 1001 1001 1001  998  998  998  998  995  995  995  995  995  995  995  995  995  995  995  995  993  993  993  993  993  993  993  993  990  990  990  990  990  990  990  993  993  993  993  990  990  987  987  987  984  984  984  984  984  984  984  984  984  984  984  984  984  984  984  984  984  984  984  984  984  984  984  984  981  981  981  981  981  981  981  981  978  978  976  976  976  976  976  976  976
1093 1093 1093 1093 1093 1093 1093 1093 1093 1093 1093 1093 1090 1090 1093 1090 1090 1093 1090 1086 1086 1086 1086 1086 1083 1083 1083 1083 1079 1076 1079 1076 1079 1079 1079 1079 1079 1083 1079 1079 1083 1083 1083 1083 1086 1086 1086 1090 1090 1093 1093 1100 1107 1114 1122 1122 1122 1122 1122 1122 1122 1122 1122 1118 1118 1118 1118 1118 1118 1118 1114 1114 1114 1114 1114 1114 1114 1114 1111 1111 1111 1111 1111 1111 1111 1111 1111 1111 1114 1114 1114 1114 1114 1114 1114 1114 1114 1114 1114 1111 1111 1111 1111 1111 1111 1111 1111 1111 1111 1107 1107 1107 1107 1107 1107 1107 1104 1104 1104 1104 1104 1104 1104 1104 1104 1104 1104 1104 1104 1104 1104 1100 1100 1100 1100 1100 1100 1100 1100 1100 1100 1100 1100 1100 1100 1100 1100 1097 1097 1097 1093 1093 1093 1093 1097 1093 1093 1093 1097 1093 1093 1093 1093 1093 1093 1093 1090 1093 1093 1090 1093 1090 1090 1090 1090 1090 1090 1090 1090 1090 1090 1090 1090 1090 1090 1090 1090 1090 1086 1086 1083 1083 1083 1083 1083 1083 1083 1083 1083 1083 1079 1079 1079 1079 1079 1079 1076 1076 1076 1076 1076 1076 1076 1076 1076 1076 1076 1076 1076 1079 1076 1076 1076 1076 1076 1076 1073 1073 1073 1069 1073 1069 1069 1069 1069 1069 1069 1069 1069 1066 1066 1066 1066 1066 1066 1066 1066 1066 1066 1066 1066 1066 1066 1066 1066 1063 1063 1063 1060 1063 1063 1060 1063 1063 1063 1063 1060 1056 1060 1056 1056 1056 1056 1056 1056 1056 1056 1056 1056 1056 1056 1053 1053 1053 1056 1056 1056 1056 1056 1056 1056 1056 1056 1056 1056 1056 1056 1056 1053 1053 1053 1053 1053 1053 1053 1053 1056 1056 1056 1056 1053 1053 1050 1050 1050 1047 1047 1047 1047 1047 1047 1047 1047 1047 1047 1047 1047 1047 1047 1047 1047 1047 1047 1044 1044 1044 1044 1044 1044 1044 1044 1044 1044 1044 1044 1044 1040 1044 1040 1040 1044 1044 1044 1040 1040 1040 1040 1037 1040 1040 1040 1040 1037 1037 1037 1037 1037 1037 1037 1037 1034 1034 1034 1034 1034 1034 1031 1031 1031 1031 1031 1028 1028 1028 1028 1028 1028 1028 1028 1028 1028 1028 1028 1028 1025 1025 1025 1025 1025 1025 1025 1025 1022 1022 1022 1022 1022 1022 1022 1022 1022 1022 1022 1022 1022 1025 1022 1022 1019 1022 1022 1022 1025 1025 1025 1022 1022 1022 1022 1025 1022 1022 1019 1019 1019 1019 1016 1016 1016 1016 1016 1016 1016 1016 1016 1016 1016 1016 1016 1016 1016 1016 1016 1016 1013 1013 1013 1013 1013 1013 1013 1013 1013 1013 1013 1013 1013 1013 1013 1013 1013 1013 1010 1010 1007 1007 1007 1007 1004 1004 1004 1007 1007 1007 1007 1007 1007 1007 1007 1007 1007 1007 1007 1007 1007 1007 1007 1004 1004 1004 1004 1001 1004 1001 1004 1004 1004 1004 1004 1004 1001 1001 1001 1001  998  998  998  998  998  995  995  995  995  995  995  995  995  995  993  993  993  993  993  993  993  993  993  993  993  993  990  990  990  990  990  990  990  993  993  993  993  990  990  987  987  987  984  984  984  984  984  984  984  984  984  984  984  984  984  984  984  984  984  984  984  984  984  981  984  981  981  981  981  981  978  978  978  978  978  978  976  976  976  976  976  976  976
1093 1093 1093 1093 1093 1093 1090 1090 1090 1090 1093 1093 1090 1090 1090 1090 1090 1090 1086 1086 1083 1083 1086 1086 1083 1079 1079 1079 1076 1073 1076 1076 1076 1076 1076 1076 1079 1083 1079 1079 1083 1083 1083 1083 1086 1086 1090 1090 1093 1093 1097 1104 1114 1118 1122 1122 1122 1122 1122 1122 1122 1122 1122 1118 1118 1118 1118 1118 1118 1118 1118 1118 1114 1114 1114 1114 1114 1114 1114 1114 1111 1111 1111 1111 1111 1111 1111 1111 1114 1114 1114 1114 1114 1114 1114 1114 1114 1114 1114 1111 1111 1111 1111 1111 1111 1111 1111 1111 1111 1107 1107 1107 1107 1107 1107 1107 1107 1104 1104 1104 1104 1104 1104 1104 1104 1100 1100 1104 1100 1104 1100 1100 1100 1100 1100 1100 1100 1100 1100 1100 1100 1100 1100 1100 1100 1100 1097 1097 1097 1097 1093 1090 1090 1093 1093 1093 1093 1093 1093 1093 1093 1093 1093 1093 1093 1093 1093 1093 1093 1090 1090 1090 1090 1090 1090 1090 1090 1090 1090 1090 1090 1090 1090 1090 1090 1090 1090 1086 1086 1086 1083 1083 1083 1083 1083 1083 1083 1083 1083 1079 1079 1079 1079 1079 1079 1079 1076 1076 1076 1076 1076 1076 1076 1076 1076 1076 1076 1076 1076 1079 1076 1076 1076 1076 1076 1073 1073 1073 1073 1073 1073 1073 1069 1069 1069 1069 1069 1069 1069 1066 1066 1066 1066 1066 1066 1066 1066 1066 1066 1066 1066 1066 1066 1066 1066 1063 1063 1063 1060 1063 1060 1060 1060 1063 1063 1063 1060 1060 1060 1060 1056 1056 1056 1056 1056 1056 1056 1056 1056 1056 1056 1053 1053 1053 1056 1056 1056 1056 1056 1056 1056 1056 1056 1056 1056 1056 1056 1053 1053 1050 1050 1050 1053 1053 1053 1053 1056 1056 1056 1056 1053 1050 1050 1050 1047 1047 1047 1047 1047 1047 1047 1047 1047 1047 1047 1047 1047 1047 1047 1047 1047 1044 1047 1047 1044 1044 1044 1044 1044 1044 1044 1044 1044 1044 1044 1044 1044 1044 1044 1040 1044 1044 1044 1040 1040 1040 1040 1040 1040 1040 1040 1037 1040 1037 1037 1037 1037 1037 1037 1037 1034 1034 1034 1034 1034 1031 1031 1031 1031 1028 1028 1028 1028 1028 1028 1028 1028 1031 1028 1028 1028 1028 1028 1028 1025 1025 1025 1025 1025 1025 1025 1025 1025 1022 1022 1022 1022 1022 1022 1022 1022 1022 1022 1022 1022 1022 1022 1019 1019 1022 1022 1025 1025 1025 1025 1022 1022 1019 1019 1022 1022 1019 1019 1019 1019 1016 1016 1016 1016 1016 1016 1016 1016 1016 1016 1016 1016 1016 1016 1016 1016 1016 1016 1013 1013 1013 1013 1013 1013 1013 1013 1013 1013 1013 1013 1013 1013 1013 1013 1010 1010 1010 1010 1010 1007 1007 1004 1004 1004 1004 1004 1007 1007 1007 1007 1007 1007 1007 1007 1007 1007 1007 1007 1007 1007 1007 1007 1004 1004 1004 1004 1004 1004 1004 1004 1004 1004 1004 1004 1004 1001 1001 1001 1001  998  998  998  998  998  995  995  995  995  995  995  995  995  993  993  993  993  993  993  993  993  993  993  993  993  990  990  990  990  987  987  990  990  993  993  993  990  990  990  987  987  987  987  987  984  984  984  984  984  984  984  984  984  984  984  984  984  984  984  984  984  984  984  981  984  981  981  978  981  978  978  978  978  978  978  978  976  976  976  976  976  976  976
1090 1093 1090 1090 1090 1093 1090 1090 1090 1090 1090 1090 1086 1090 1090 1086 1086 1086 1083 1083 1083 1083 1083 1083 1076 1076 1076 1073 1073 1073 1073 1076 1076 1076 1076 1079 1083 1083 1079 1083 1083 1083 1083 1083 1086 1086 1086 1090 1093 1097 1100 1111 1118 1122 1122 1122 1122 1122 1122 1122 1122 1122 1118 1118 1118 1118 1118 1118 1118 1118 1118 1118 1118 1118 1114 1114 1114 1114 1114 1114 1114 1114 1111 1111 1111 1111 1111 1111 1114 1114 1114 1114 1114 1114 1114 1114 1114 1114 1111 1111 1111 1111 1111 1111 1107 1107 1111 1107 1111 1107 1107 1107 1107 1107 1107 1107 1107 1104 1104 1104 1104 1104 1104 1104 1104 1100 1100 1104 1100 1100 1100 1100 1100 1100 1100 1100 1100 1100 1100 1100 1100 1100 1100 1100 1100 1100 1100 1097 1097 1097 1093 1093 1090 1093 1093 1093 1093 1093 1097 1093 1093 1093 1093 1093 1093 1093 1093 1093 1093 1090 1090 1090 1090 1090 1090 1090 1090 1090 1090 1090 1090 1090 1090 1090 1090 1086 1090 1086 1086 1086 1086 1086 1083 1083 1083 1083 1083 1083 1083 1083 1079 1079 1079 1079 1079 1079 1076 1076 1076 1076 1076 1076 1076 1076 1076 1076 1076 1076 1076 1079 1079 1076 1076 1076 1076 1073 1073 1073 1069 1069 1069 1069 1069 1069 1069 1069 1069 1069 1069 1069 1069 1066 1066 1066 1066 1066 1066 1066 1066 1066 1066 1066 1066 1066 1066 1063 1063 1060 1060 1060 1060 1060 1060 1060 1060 1060 1060 1056 1060 1060 1056 1056 1056 1056 1056 1056 1056 1056 1056 1056 1056 1056 1056 1053 1056 1056 1056 1056 1056 1056 1056 1056 1056 1056 1056 1056 1056 1053 1053 1050 1050 1050 1053 1053 1053 1053 1056 1056 1056 1056 1053 1050 1050 1050 1050 1047 1047 1047 1047 1047 1047 1047 1047 1047 1047 1047 1047 1047 1047 1047 1047 1047 1044 1044 1044 1044 1044 1044 1044 1044 1044 1044 1044 1044 1044 1044 1040 1044 1040 1040 1044 1044 1040 1040 1040 1040 1040 1040 1040 1040 1040 1037 1037 1037 1037 1037 1037 1037 1037 1037 1034 1037 1034 1034 1034 1031 1031 1031 1031 1028 1028 1028 1028 1028 1028 1028 1028 1031 1031 1031 1028 1025 1028 1025 1025 1025 1025 1025 1025 1025 1025 1025 1025 1025 1025 1022 1022 1022 1022 1022 1022 1022 1022 1022 1019 1022 1022 1022 1022 1022 1022 1022 1022 1022 1022 1022 1019 1019 1019 1022 1019 1019 1019 1016 1016 1016 1016 1016 1016 1016 1016 1016 1016 1016 1016 1016 1016 1016 1016 1016 1016 1016 1016 1016 1013 1013 1013 1013 1013 1013 1013 1013 1013 1010 1013 1013 1013 1010 1010 1010 1010 1007 1007 1007 1007 1007 1004 1007 1004 1004 1004 1007 1007 1007 1007 1007 1007 1007 1007 1007 1007 1007 1007 1007 1007 1007 1004 1004 1004 1004 1004 1004 1004 1004 1004 1001 1001 1001 1001 1001 1001 1001  998  998  998  998  995  995  995  995  995  995  995  995  995  995  993  993  993  993  993  993  993  993  993  993  993  993  993  990  990  990  990  987  987  987  990  993  993  990  990  990  987  987  987  987  987  987  984  987  984  984  984  984  984  984  984  984  984  984  984  984  984  984  984  984  984  984  981  981  981  981  981  978  978  978  978  978  978  978  976  976  976  976  976  976  976
1090 1090 1090 1090 1090 1090 1086 1086 1086 1086 1086 1086 1086 1086 1086 1086 1083 1083 1079 1079 1079 1076 1079 1076 1073 1073 1073 1073 1073 1073 1073 1073 1073 1076 1076 1079 1083 1083 1083 1083 1083 1083 1086 1086 1086 1086 1090 1090 1093 1100 1104 1114 1118 1122 1122 1122 1122 1122 1122 1122 1122 1122 1118 1118 1118 1118 1122 1118 1122 1118 1122 1118 1118 1118 1118 1118 1114 1114 1114 1114 1114 1114 1111 1111 1111 1111 1111 1111 1114 1114 1114 1114 1114 1114 1114 1114 1114 1111 1111 1111 1111 1111 1111 1111 1107 1107 1107 1107 1107 1107 1107 1107 1107 1107 1107 1107 1107 1104 1104 1104 1104 1104 1104 1100 1100 1100 1100 1100 1100 1100 1100 1100 1100 1100 1100 1100 1100 1100 1100 1100 1100 1100 1100 1100 1100 1100 1097 1097 1097 1093 1093 1090 1090 1093 1093 1093 1093 1093 1093 1093 1093 1093 1093 1093 1093 1093 1093 1093 1093 1093 1090 1090 1090 1090 1090 1090 1090 1090 1090 1090 1090 1090 1090 1090 1090 1086 1090 1086 1086 1086 1083 1086 1083 1083 1083 1083 1083 1083 1083 1079 1079 1079 1079 1079 1079 1079 1076 1076 1076 1076 1076 1076 1076 1076 1076 1076 1076 1076 1076 1079 1079 1076 1076 1076 1076 1073 1073 1073 1073 1069 1073 1069 1069 1069 1069 1069 1069 1069 1069 1066 1069 1066 1066 1066 1066 1066 1066 1066 1066 1066 1066 1066 1066 1063 1066 1063 1060 1060 1060 1060 1060 1060 1060 1060 1060 1060 1060 1060 1060 1060 1056 1056 1056 1056 1056 1056 1056 1056 1056 1056 1056 1053 1056 1053 1056 1056 1056 1056 1056 1056 1056 1056 1056 1056 1056 1056 1056 1053 1053 1050 1050 1050 1053 1053 1053 1053 1053 1053 1053 1053 1050 1050 1050 1050 1047 1047 1047 1047 1047 1047 1047 1047 1047 1047 1047 1047 1047 1047 1047 1047 1047 1044 1044 1044 1044 1044 1044 1044 1044 1044 1044 1044 1044 1044 1044 1044 1044 1044 1040 1040 1044 1040 1040 1040 1040 1037 1037 1037 1037 1037 1037 1037 1037 1037 1037 1037 1037 1037 1037 1037 1034 1034 1034 1034 1031 1031 1031 1028 1028 1028 1028 1028 1028 1028 1028 1028 1028 1031 1031 1031 1028 1028 1028 1025 1025 1025 1025 1025 1025 1025 1025 1025 1025 1025 1025 1025 1025 1022 1022 1022 1022 1022 1022 1022 1022 1025 1022 1022 1022 1022 1022 1022 1022 1022 1019 1019 1019 1019 1019 1019 1019 1019 1016 1016 1016 1016 1016 1016 1016 1016 1016 1016 1016 1013 1013 1016 1016 1016 1016 1016 1016 1016 1016 1016 1013 1013 1013 1013 1013 1013 1013 1013 1013 1013 1013 1013 1013 1010 1010 1010 1010 1007 1007 1007 1007 1007 1007 1007 1007 1004 1004 1007 1007 1007 1007 1007 1007 1007 1007 1007 1007 1007 1007 1007 1007 1007 1004 1004 1004 1004 1004 1001 1001 1001 1001 1001 1001 1001 1001 1001 1001 1001  998  998  998  995  995  995  995  995  995  995  995  995  995  995  993  993  993  993  993  993  993  993  993  993  993  993  993  990  990  990  990  987  987  987  987  990  990  990  990  987  987  987  987  987  987  987  987  987  987  984  984  984  984  984  984  984  984  984  984  984  984  984  981  981  984  981  981  981  981  981  981  978  978  978  978  978  978  976  976  976  976  976  976  976  976
1086 1086 1090 1086 1086 1086 1083 1083 1083 1083 1086 1083 1083 1083 1083 1083 1083 1079 1076 1076 1076 1073 1076 1076 1073 1073 1073 1073 1073 1073 1073 1073 1073 1076 1076 1079 1083 1083 1083 1083 1083 1083 1086 1086 1086 1086 1090 1090 1097 1107 1111 1118 1122 1122 1122 1122 1122 1122 1122 1122 1122 1122 1118 1118 1118 1118 1122 1118 1122 1118 1118 1118 1118 1118 1118 1118 1114 1118 1114 1114 1114 1114 1111 1111 1111 1111 1114 1111 1118 1118 1118 1114 1114 1114 1114 1114 1114 1111 1111 1111 1111 1111 1107 1107 1107 1107 1107 1107 1107 1107 1107 1104 1107 1107 1107 1107 1104 1104 1104 1104 1104 1104 1100 1100 1100 1100 1100 1100 1100 1100 1100 1100 1100 1100 1100 1100 1100 1100 1100 1100 1100 1100 1100 1100 1100 1100 1097 1097 1097 1093 1093 1090 1090 1093 1093 1093 1093 1093 1097 1093 1097 1093 1093 1093 1093 1093 1093 1093 1093 1093 1093 1090 1090 1090 1090 1090 1090 1090 1090 1090 1090 1090 1090 1090 1090 1086 1086 1086 1086 1086 1083 1083 1083 1083 1083 1083 1083 1079 1079 1079 1079 1079 1079 1079 1076 1079 1076 1076 1076 1076 1076 1076 1076 1076 1076 1076 1076 1076 1076 1079 1076 1076 1073 1076 1073 1073 1073 1073 1069 1069 1073 1069 1069 1069 1069 1069 1069 1069 1069 1066 1066 1066 1066 1066 1066 1066 1066 1066 1066 1066 1063 1063 1063 1063 1063 1063 1060 1060 1060 1060 1060 1056 1056 1060 1060 1060 1060 1060 1060 1056 1056 1056 1056 1056 1056 1056 1056 1056 1056 1053 1056 1053 1056 1053 1056 1056 1056 1056 1056 1056 1056 1056 1056 1056 1056 1056 1056 1053 1053 1050 1050 1050 1053 1053 1053 1053 1053 1053 1053 1050 1050 1050 1047 1050 1047 1047 1047 1047 1047 1047 1047 1047 1047 1047 1047 1047 1047 1047 1047 1047 1047 1044 1044 1044 1044 1044 1044 1044 1044 1044 1044 1044 1044 1044 1044 1044 1044 1044 1040 1040 1044 1044 1040 1040 1040 1040 1037 1037 1037 1037 1037 1037 1037 1037 1037 1037 1037 1037 1037 1037 1034 1034 1034 1034 1031 1031 1031 1028 1028 1028 1028 1028 1028 1028 1028 1031 1031 1031 1031 1031 1028 1028 1025 1025 1025 1025 1025 1025 1025 1025 1025 1025 1025 1025 1025 1022 1022 1022 1022 1022 1022 1022 1022 1022 1022 1025 1022 1022 1022 1022 1022 1022 1022 1022 1022 1019 1019 1019 1019 1019 1019 1019 1016 1016 1016 1016 1016 1016 1016 1016 1016 1016 1016 1016 1016 1016 1016 1016 1016 1016 1016 1016 1016 1013 1013 1013 1013 1013 1013 1013 1013 1013 1013 1013 1013 1010 1010 1010 1010 1010 1007 1007 1007 1007 1007 1007 1007 1007 1007 1004 1004 1007 1007 1007 1007 1007 1007 1007 1007 1007 1007 1007 1007 1007 1007 1007 1004 1004 1004 1004 1004 1004 1004 1001 1001 1001 1001 1001 1001 1001 1001  998  998  998  995  995  995  995  995  995  995  995  995  995  995  995  993  993  993  993  993  993  993  993  993  993  993  993  993  990  990  990  990  987  987  987  987  990  990  990  990  990  990  990  987  987  987  987  987  987  987  984  984  984  984  984  984  984  984  984  984  984  984  984  984  981  984  981  981  981  981  978  981  978  978  978  978  978  978  976  976  976  976  976  976  976  976
1086 1086 1086 1086 1086 1083 1083 1083 1083 1083 1083 1083 1079 1083 1079 1079 1079 1076 1076 1076 1073 1069 1076 1073 1073 1073 1073 1073 1073 1073 1073 1073 1073 1076 1076 1079 1083 1083 1083 1083 1083 1083 1086 1086 1086 1086 1090 1090 1107 1114 1114 1122 1122 1125 1125 1122 1122 1122 1122 1122 1118 1118 1118 1118 1118 1118 1122 1118 1118 1118 1118 1118 1118 1118 1114 1114 1114 1114 1114 1114 1114 1114 1114 1111 1111 1111 1111 1111 1118 1118 1114 1114 1114 1114 1114 1114 1111 1111 1111 1111 1111 1111 1111 1107 1107 1107 1107 1107 1107 1107 1104 1104 1104 1107 1107 1107 1104 1104 1104 1104 1104 1104 1100 1100 1100 1100 1100 1100 1100 1100 1100 1100 1100 1100 1100 1100 1100 1100 1100 1100 1100 1100 1100 1100 1100 1100 1097 1097 1097 1093 1093 1090 1090 1093 1093 1093 1093 1093 1097 1097 1097 1097 1093 1093 1093 1093 1093 1093 1093 1093 1093 1093 1090 1090 1090 1090 1090 1090 1090 1090 1090 1090 1090 1090 1090 1086 1086 1086 1086 1086 1083 1083 1083 1083 1083 1083 1083 1079 1079 1079 1079 1079 1079 1076 1076 1079 1076 1076 1076 1076 1076 1076 1076 1073 1076 1076 1076 1076 1076 1076 1076 1076 1073 1076 1073 1073 1073 1073 1069 1069 1073 1069 1069 1069 1069 1069 1069 1069 1069 1066 1069 1066 1066 1066 1066 1066 1066 1066 1066 1066 1066 1063 1063 1063 1063 1063 1060 1060 1060 1060 1056 1056 1056 1056 1060 1060 1060 1060 1060 1056 1056 1056 1056 1056 1056 1053 1053 1053 1053 1053 1053 1053 1053 1053 1056 1056 1056 1056 1056 1056 1056 1056 1056 1056 1056 1056 1056 1056 1053 1050 1053 1053 1053 1053 1053 1053 1053 1053 1053 1050 1050 1050 1047 1047 1047 1047 1047 1047 1047 1047 1047 1047 1047 1047 1047 1047 1047 1047 1047 1047 1047 1044 1044 1044 1044 1044 1044 1044 1044 1044 1044 1044 1044 1044 1044 1044 1044 1040 1044 1040 1044 1044 1040 1040 1040 1040 1037 1037 1037 1037 1037 1037 1037 1037 1037 1037 1037 1037 1037 1034 1034 1034 1034 1034 1031 1028 1028 1028 1028 1025 1025 1028 1028 1028 1028 1028 1031 1031 1031 1031 1028 1025 1025 1025 1025 1022 1022 1025 1025 1025 1025 1025 1025 1025 1025 1022 1022 1022 1022 1022 1022 1022 1022 1022 1022 1025 1022 1022 1022 1022 1022 1022 1022 1022 1022 1019 1019 1019 1019 1019 1019 1019 1019 1019 1019 1016 1016 1016 1016 1016 1016 1016 1016 1016 1016 1016 1016 1016 1016 1016 1016 1016 1016 1013 1013 1013 1013 1013 1013 1013 1013 1013 1013 1013 1013 1010 1010 1010 1010 1010 1007 1007 1007 1010 1007 1007 1007 1007 1007 1007 1004 1007 1007 1007 1007 1007 1007 1007 1007 1007 1007 1007 1007 1007 1004 1004 1004 1004 1004 1004 1004 1004 1004 1004 1004 1001 1001 1001 1001 1001 1001  998  998  998  995  995  995  995  995  995  995  995  995  995  995  993  993  993  993  993  993  993  993  993  993  993  993  993  993  990  993  990  990  987  987  987  987  990  990  987  990  987  987  987  987  987  987  987  987  987  987  984  984  984  984  984  984  984  984  984  984  984  984  984  984  984  981  981  981  981  981  978  978  976  976  978  976  976  976  976  976  976  976  976  976  976  976
1083 1086 1083 1083 1083 1083 1083 1083 1083 1083 1079 1079 1076 1079 1076 1076 1073 1073 1073 1073 1069 1069 1073 1073 1073 1069 1073 1073 1073 1073 1073 1073 1073 1076 1076 1076 1079 1083 1083 1083 1083 1083 1086 1086 1086 1086 1093 1097 1118 1122 1118 1122 1125 1125 1125 1125 1125 1122 1122 1122 1118 1118 1118 1118 1118 1118 1118 1118 1118 1118 1118 1118 1118 1118 1114 1114 1118 1118 1114 1114 1114 1114 1114 1114 1114 1111 1114 1111 1118 1118 1118 1114 1114 1114 1114 1114 1111 1111 1111 1111 1111 1107 1111 1111 1111 1107 1107 1107 1107 1107 1104 1107 1104 1107 1107 1107 1104 1104 1104 1104 1104 1104 1100 1100 1100 1100 1100 1100 1100 1100 1100 1100 1100 1100 1100 1100 1100 1100 1100 1100 1100 1100 1100 1100 1097 1097 1097 1097 1093 1093 1093 1090 1090 1093 1093 1093 1093 1093 1097 1097 1097 1097 1097 1093 1093 1093 1093 1093 1093 1093 1093 1090 1090 1090 1090 1090 1090 1090 1090 1090 1090 1090 1090 1090 1086 1086 1086 1086 1086 1083 1083 1083 1083 1083 1083 1083 1079 1079 1079 1079 1079 1079 1079 1076 1076 1076 1076 1076 1076 1076 1076 1076 1073 1073 1076 1073 1073 1073 1073 1076 1076 1076 1073 1073 1073 1073 1073 1073 1069 1069 1069 1069 1069 1069 1069 1069 1069 1069 1066 1066 1066 1066 1066 1066 1066 1066 1066 1066 1066 1066 1063 1063 1063 1063 1063 1063 1060 1060 1060 1060 1060 1060 1056 1056 1060 1060 1060 1060 1060 1056 1056 1056 1056 1056 1056 1053 1053 1053 1053 1053 1053 1053 1053 1053 1056 1056 1056 1056 1056 1056 1056 1056 1056 1056 1056 1056 1056 1056 1053 1053 1053 1053 1053 1050 1050 1050 1053 1053 1050 1050 1050 1047 1047 1047 1047 1047 1047 1047 1047 1047 1047 1047 1047 1047 1047 1047 1047 1047 1047 1047 1047 1047 1044 1044 1044 1044 1044 1044 1044 1044 1044 1044 1044 1044 1044 1040 1040 1040 1040 1040 1044 1040 1040 1040 1040 1040 1040 1037 1037 1037 1037 1037 1037 1037 1037 1037 1037 1037 1034 1034 1034 1034 1034 1034 1031 1031 1031 1028 1028 1025 1025 1025 1028 1028 1028 1028 1031 1031 1031 1031 1028 1025 1025 1025 1025 1022 1022 1025 1025 1025 1025 1025 1025 1025 1025 1022 1022 1022 1022 1022 1022 1022 1022 1022 1022 1025 1025 1025 1025 1025 1025 1022 1022 1022 1022 1022 1019 1019 1019 1019 1019 1019 1016 1016 1016 1016 1016 1016 1016 1016 1016 1016 1016 1016 1016 1016 1016 1016 1016 1016 1016 1016 1016 1013 1013 1013 1013 1013 1013 1013 1013 1013 1013 1013 1010 1010 1010 1010 1010 1007 1007 1007 1007 1010 1007 1007 1007 1007 1007 1007 1007 1007 1007 1007 1007 1007 1007 1007 1007 1007 1007 1007 1004 1007 1004 1004 1004 1004 1004 1004 1004 1004 1004 1004 1004 1001 1001 1001 1001 1001 1001  998  995  995  995  995  995  995  995  995  995  995  995  995  995  993  993  993  993  993  993  993  993  990  993  993  993  993  993  990  990  990  987  987  987  987  987  990  990  987  990  987  990  987  987  987  987  987  987  987  987  987  987  984  984  984  984  984  984  984  984  984  984  984  984  984  984  981  981  981  981  978  978  976  976  978  976  976  976  976  976  976  976  976  976  976  976
1083 1083 1083 1083 1083 1079 1079 1079 1079 1079 1079 1073 1073 1073 1073 1073 1069 1069 1069 1069 1069 1066 1073 1069 1069 1069 1069 1073 1073 1073 1073 1073 1073 1076 1076 1076 1079 1083 1083 1083 1083 1083 1086 1086 1086 1086 1093 1107 1114 1122 1118 1122 1122 1125 1125 1122 1122 1122 1122 1122 1118 1118 1118 1118 1118 1118 1118 1118 1118 1118 1118 1118 1118 1114 1114 1114 1114 1118 1114 1114 1114 1114 1114 1114 1114 1111 1114 1114 1118 1118 1118 1114 1114 1114 1114 1111 1111 1111 1111 1111 1111 1107 1107 1107 1111 1107 1107 1107 1107 1107 1104 1107 1104 1107 1107 1107 1104 1104 1104 1104 1104 1104 1100 1100 1104 1100 1100 1100 1100 1100 1100 1100 1100 1100 1100 1100 1100 1100 1100 1100 1100 1100 1100 1100 1097 1097 1097 1093 1093 1093 1090 1090 1090 1093 1093 1093 1093 1097 1097 1097 1097 1097 1097 1097 1093 1093 1093 1093 1093 1093 1093 1090 1090 1090 1090 1090 1090 1090 1090 1090 1090 1090 1090 1090 1090 1086 1086 1086 1086 1083 1083 1083 1083 1083 1079 1079 1079 1079 1079 1079 1079 1079 1079 1076 1076 1076 1076 1076 1076 1076 1073 1073 1073 1073 1073 1073 1073 1073 1073 1076 1076 1076 1073 1073 1073 1069 1069 1073 1069 1069 1069 1069 1069 1069 1069 1069 1069 1069 1066 1066 1066 1066 1066 1066 1066 1066 1066 1066 1066 1066 1063 1063 1063 1063 1063 1063 1060 1060 1060 1060 1056 1056 1056 1056 1056 1056 1060 1060 1060 1056 1056 1056 1056 1053 1053 1053 1053 1053 1053 1053 1053 1053 1053 1053 1056 1056 1056 1056 1056 1056 1056 1056 1056 1056 1056 1056 1056 1056 1053 1053 1050 1053 1053 1050 1050 1050 1050 1050 1050 1050 1050 1047 1047 1047 1047 1047 1047 1047 1047 1047 1047 1047 1047 1047 1047 1047 1047 1047 1047 1047 1047 1047 1044 1044 1044 1044 1044 1044 1044 1044 1044 1044 1044 1044 1044 1040 1040 1040 1040 1040 1044 1040 1040 1040 1040 1040 1040 1037 1037 1037 1037 1037 1037 1034 1037 1034 1034 1034 1034 1034 1034 1034 1034 1034 1031 1031 1031 1031 1028 1028 1028 1028 1028 1028 1028 1028 1028 1031 1028 1028 1028 1025 1025 1025 1022 1022 1022 1025 1025 1025 1025 1025 1025 1025 1025 1025 1022 1022 1022 1022 1022 1022 1022 1022 1022 1025 1025 1025 1022 1022 1022 1022 1022 1019 1019 1019 1019 1016 1019 1019 1019 1019 1016 1016 1016 1016 1016 1016 1016 1016 1016 1016 1016 1016 1016 1016 1016 1016 1016 1016 1016 1016 1013 1013 1013 1013 1013 1013 1013 1013 1013 1013 1013 1013 1010 1010 1010 1010 1007 1007 1007 1007 1007 1010 1007 1007 1007 1007 1007 1007 1007 1007 1007 1007 1007 1007 1007 1007 1007 1007 1007 1007 1007 1007 1004 1004 1004 1004 1004 1004 1004 1004 1004 1004 1004 1001 1001 1001 1001 1001  998  998  995  995  995  995  995  995  995  995  995  995  995  995  995  993  993  993  993  990  993  990  990  990  993  990  993  990  990  990  990  990  984  987  984  987  984  987  987  987  987  987  990  987  987  987  987  990  987  987  987  987  987  987  987  984  984  984  984  984  984  984  984  984  984  984  984  981  981  981  981  978  976  976  976  976  976  976  976  976  976  976  976  976  976  976  976
1083 1079 1079 1079 1079 1079 1079 1079 1079 1076 1076 1073 1069 1069 1069 1069 1069 1069 1069 1066 1066 1066 1069 1069 1069 1069 1069 1069 1073 1073 1073 1073 1073 1076 1076 1076 1079 1083 1083 1083 1083 1083 1086 1086 1090 1090 1097 1107 1114 1118 1118 1118 1122 1122 1122 1122 1122 1122 1122 1122 1118 1118 1118 1118 1118 1118 1118 1118 1118 1122 1122 1118 1118 1114 1114 1114 1114 1114 1114 1114 1114 1114 1114 1111 1111 1111 1111 1111 1114 1114 1114 1114 1114 1114 1114 1111 1111 1111 1111 1111 1111 1111 1111 1111 1111 1107 1107 1107 1104 1104 1104 1104 1104 1104 1107 1104 1104 1104 1104 1104 1104 1100 1100 1100 1104 1100 1100 1100 1100 1104 1100 1100 1100 1100 1100 1100 1100 1100 1100 1100 1100 1100 1100 1097 1097 1097 1097 1093 1093 1093 1090 1090 1090 1093 1093 1093 1093 1093 1093 1093 1097 1093 1093 1093 1093 1093 1093 1093 1093 1093 1090 1090 1090 1090 1090 1090 1090 1090 1090 1090 1090 1090 1090 1090 1090 1086 1086 1083 1083 1083 1083 1083 1079 1083 1079 1079 1079 1079 1079 1079 1079 1076 1079 1076 1076 1076 1076 1076 1076 1076 1073 1073 1073 1073 1073 1073 1073 1073 1073 1076 1076 1076 1073 1073 1069 1069 1069 1069 1069 1069 1069 1069 1069 1069 1069 1069 1069 1069 1066 1066 1066 1066 1066 1066 1066 1066 1066 1066 1063 1063 1063 1063 1063 1063 1063 1060 1060 1056 1056 1056 1056 1056 1056 1056 1056 1060 1060 1060 1060 1056 1056 1056 1056 1053 1053 1053 1053 1053 1053 1053 1053 1053 1053 1053 1056 1056 1056 1056 1056 1056 1056 1056 1056 1056 1056 1056 1056 1056 1053 1053 1050 1050 1050 1050 1050 1050 1050 1050 1050 1050 1047 1047 1047 1047 1047 1047 1047 1047 1047 1047 1047 1047 1047 1047 1047 1044 1047 1044 1044 1044 1044 1044 1044 1044 1044 1044 1044 1044 1044 1044 1044 1044 1044 1044 1044 1040 1040 1040 1040 1040 1040 1040 1040 1040 1040 1040 1037 1037 1037 1037 1037 1037 1034 1034 1034 1034 1034 1034 1034 1034 1034 1034 1034 1034 1031 1031 1031 1031 1028 1028 1028 1025 1025 1028 1028 1028 1028 1028 1028 1028 1028 1025 1025 1025 1025 1022 1025 1025 1025 1025 1025 1025 1025 1025 1025 1025 1022 1022 1022 1022 1022 1022 1022 1022 1022 1025 1025 1025 1025 1022 1022 1022 1019 1019 1019 1019 1019 1016 1019 1019 1019 1016 1016 1016 1016 1016 1016 1016 1016 1016 1016 1016 1016 1016 1016 1016 1016 1016 1016 1016 1016 1013 1013 1013 1013 1013 1013 1013 1013 1013 1013 1013 1013 1010 1010 1010 1007 1007 1007 1007 1007 1007 1007 1010 1007 1007 1007 1010 1007 1007 1007 1007 1007 1007 1007 1007 1007 1007 1007 1007 1007 1007 1007 1007 1004 1004 1004 1004 1004 1004 1004 1004 1004 1004 1004 1004 1004 1001 1001 1001 1001  998  998  998  995  995  995  995  995  995  995  995  993  993  995  993  993  993  993  993  993  993  993  990  993  990  993  990  990  990  990  990  984  987  984  987  984  987  987  987  987  987  987  987  990  987  987  987  987  987  987  987  987  984  984  984  984  984  984  984  984  984  984  984  984  984  984  981  981  981  981  978  976  976  976  978  976  976  976  978  978  978  976  976  976  976  976
1079 1079 1079 1079 1079 1076 1076 1076 1076 1073 1073 1069 1069 1066 1066 1066 1066 1066 1066 1066 1066 1066 1069 1069 1069 1069 1069 1069 1073 1073 1073 1073 1073 1076 1076 1076 1079 1083 1083 1083 1086 1083 1086 1086 1090 1090 1104 1111 1114 1122 1118 1122 1122 1122 1122 1122 1122 1122 1122 1118 1118 1114 1114 1114 1118 1118 1118 1118 1118 1118 1118 1118 1114 1114 1114 1114 1114 1114 1114 1114 1114 1114 1114 1111 1111 1111 1111 1111 1114 1114 1114 1114 1114 1114 1114 1111 1111 1107 1107 1107 1107 1107 1107 1107 1107 1107 1104 1104 1104 1104 1104 1104 1104 1104 1104 1104 1104 1104 1104 1104 1104 1100 1100 1100 1104 1100 1100 1100 1100 1104 1100 1100 1100 1100 1100 1100 1100 1100 1100 1100 1100 1100 1100 1097 1097 1097 1097 1093 1093 1093 1093 1090 1090 1093 1093 1093 1093 1093 1093 1093 1097 1093 1093 1093 1093 1093 1093 1093 1093 1093 1090 1090 1090 1090 1090 1090 1090 1090 1090 1090 1090 1090 1090 1090 1090 1086 1086 1083 1083 1083 1079 1083 1079 1083 1079 1079 1079 1079 1079 1079 1079 1076 1079 1076 1076 1076 1076 1076 1076 1076 1073 1073 1073 1073 1073 1073 1073 1076 1076 1076 1076 1076 1073 1073 1069 1069 1069 1069 1069 1069 1069 1069 1069 1069 1069 1069 1069 1066 1066 1066 1066 1066 1066 1066 1066 1066 1066 1066 1063 1063 1063 1060 1060 1060 1063 1060 1060 1056 1056 1056 1056 1056 1056 1056 1056 1060 1056 1060 1056 1056 1056 1056 1056 1053 1053 1053 1053 1053 1053 1053 1053 1053 1053 1053 1056 1056 1056 1056 1056 1056 1053 1056 1056 1056 1056 1056 1056 1056 1053 1053 1050 1050 1050 1050 1050 1050 1050 1050 1050 1047 1047 1047 1047 1047 1047 1047 1047 1047 1047 1047 1047 1047 1047 1047 1047 1044 1044 1044 1044 1044 1044 1044 1044 1044 1044 1044 1044 1044 1044 1044 1044 1044 1044 1044 1044 1040 1040 1040 1040 1040 1040 1040 1040 1040 1040 1040 1037 1037 1037 1037 1037 1034 1034 1034 1034 1034 1034 1034 1034 1034 1034 1034 1034 1034 1031 1031 1031 1031 1028 1028 1028 1028 1028 1028 1028 1028 1028 1028 1025 1028 1028 1025 1025 1025 1025 1025 1025 1025 1025 1025 1025 1025 1025 1025 1025 1022 1022 1022 1022 1022 1022 1022 1022 1022 1022 1025 1022 1025 1022 1022 1022 1019 1019 1019 1019 1019 1019 1019 1016 1019 1019 1016 1016 1016 1016 1016 1016 1016 1016 1016 1016 1016 1016 1016 1013 1016 1016 1013 1013 1013 1013 1013 1013 1013 1013 1013 1013 1013 1010 1010 1010 1010 1013 1010 1010 1007 1007 1007 1007 1007 1007 1004 1007 1010 1007 1007 1010 1010 1007 1007 1007 1007 1007 1007 1007 1007 1007 1007 1007 1007 1007 1007 1007 1007 1004 1004 1004 1004 1004 1004 1004 1004 1004 1004 1004 1001 1001 1001 1001  998  998  998  998  998  995  995  995  995  995  995  995  995  993  993  993  993  993  993  993  993  993  993  993  990  993  990  990  990  990  990  987  990  987  987  984  987  984  987  987  987  987  987  987  987  987  987  987  987  987  987  987  987  987  984  984  984  984  984  984  984  984  984  984  984  984  984  984  981  981  981  981  978  976  976  976  976  976  976  976  976  976  978  976  976  976  976  976
1079 1076 1076 1076 1073 1073 1073 1073 1073 1069 1069 1069 1066 1066 1066 1066 1066 1066 1066 1066 1066 1066 1069 1069 1069 1069 1069 1069 1069 1073 1073 1073 1073 1076 1076 1079 1079 1083 1083 1083 1086 1083 1086 1086 1090 1097 1111 1114 1118 1122 1118 1122 1122 1122 1122 1122 1122 1122 1118 1118 1118 1114 1114 1114 1114 1118 1118 1114 1114 1118 1118 1118 1114 1114 1114 1114 1114 1114 1114 1114 1114 1114 1114 1111 1111 1111 1111 1111 1114 1114 1114 1114 1114 1114 1111 1111 1111 1111 1111 1111 1111 1111 1111 1111 1111 1107 1107 1107 1104 1104 1104 1104 1104 1104 1104 1104 1104 1104 1104 1104 1104 1100 1100 1100 1104 1100 1100 1104 1104 1104 1104 1100 1100 1104 1100 1100 1100 1100 1100 1100 1100 1100 1100 1100 1100 1097 1097 1093 1093 1093 1090 1090 1090 1093 1093 1093 1093 1093 1093 1093 1093 1093 1093 1093 1093 1093 1093 1090 1093 1093 1090 1090 1090 1090 1090 1090 1090 1090 1090 1090 1090 1090 1090 1090 1086 1086 1083 1083 1083 1083 1079 1079 1079 1079 1079 1079 1079 1079 1079 1079 1079 1076 1076 1076 1076 1076 1076 1076 1076 1076 1076 1076 1073 1073 1073 1073 1073 1076 1076 1076 1076 1076 1076 1073 1073 1069 1069 1069 1069 1069 1069 1069 1069 1069 1069 1069 1069 1066 1066 1066 1066 1066 1066 1066 1066 1066 1066 1063 1063 1063 1063 1060 1060 1060 1063 1060 1060 1056 1056 1056 1056 1056 1056 1056 1056 1056 1056 1060 1056 1056 1056 1056 1056 1053 1053 1053 1053 1053 1053 1053 1053 1053 1053 1053 1056 1056 1056 1056 1056 1056 1053 1053 1056 1056 1056 1056 1056 1056 1053 1053 1050 1050 1050 1050 1047 1047 1050 1047 1050 1047 1047 1047 1047 1047 1047 1047 1047 1047 1047 1047 1047 1047 1044 1044 1044 1044 1044 1044 1044 1044 1044 1044 1044 1044 1044 1044 1044 1044 1044 1044 1044 1044 1044 1044 1044 1040 1040 1040 1040 1040 1040 1040 1040 1040 1040 1040 1037 1037 1037 1037 1037 1034 1034 1034 1034 1034 1034 1034 1034 1034 1034 1034 1034 1031 1031 1031 1031 1031 1028 1028 1028 1028 1028 1028 1028 1028 1028 1028 1025 1028 1028 1025 1025 1025 1025 1025 1025 1025 1025 1025 1025 1025 1025 1025 1025 1025 1022 1022 1022 1022 1022 1022 1022 1022 1022 1022 1022 1022 1022 1022 1019 1019 1019 1019 1019 1019 1019 1019 1019 1019 1019 1019 1019 1019 1016 1016 1016 1016 1016 1016 1016 1016 1016 1016 1013 1013 1013 1013 1013 1013 1013 1013 1013 1013 1013 1013 1013 1010 1010 1010 1010 1010 1010 1010 1010 1007 1007 1007 1007 1007 1004 1004 1007 1007 1007 1007 1007 1007 1007 1007 1007 1007 1007 1007 1007 1007 1007 1007 1007 1007 1007 1007 1007 1007 1004 1004 1004 1004 1004 1004 1004 1004 1001 1004 1001 1001 1001 1001 1001  998  998  998  998  995  995  998  995  995  995  995  993  993  993  993  993  993  993  993  993  993  993  993  993  993  993  990  993  990  990  990  990  990  987  987  987  987  984  987  987  987  987  987  987  987  987  987  987  987  987  987  987  987  987  987  984  984  984  984  984  984  984  984  981  984  984  984  981  981  981  981  981  976  976  976  976  978  976  976  976  978  978  978  976  976  976  976  976
1079 1076 1073 1073 1073 1069 1069 1069 1069 1069 1069 1066 1066 1066 1066 1066 1066 1066 1066 1066 1066 1066 1069 1069 1069 1069 1069 1069 1069 1073 1073 1073 1073 1076 1073 1076 1079 1079 1083 1083 1083 1083 1086 1090 1097 1104 1114 1118 1122 1122 1122 1122 1122 1122 1122 1122 1122 1122 1122 1118 1114 1114 1114 1114 1114 1114 1114 1114 1114 1114 1114 1114 1114 1114 1114 1114 1114 1114 1114 1114 1114 1114 1114 1114 1111 1111 1111 1111 1114 1114 1114 1114 1114 1114 1111 1111 1111 1111 1111 1111 1107 1111 1111 1111 1111 1107 1107 1107 1104 1104 1104 1104 1104 1104 1104 1104 1104 1104 1104 1100 1104 1100 1100 1100 1100 1100 1100 1104 1104 1104 1104 1104 1100 1104 1100 1100 1100 1100 1100 1100 1100 1100 1100 1100 1100 1100 1097 1093 1093 1093 1093 1090 1090 1093 1093 1093 1093 1093 1093 1093 1093 1093 1093 1093 1093 1093 1093 1090 1093 1093 1090 1090 1090 1090 1090 1090 1090 1090 1090 1090 1090 1090 1090 1086 1086 1086 1083 1083 1083 1083 1079 1079 1079 1079 1079 1079 1079 1079 1079 1079 1079 1076 1079 1076 1076 1076 1076 1076 1076 1076 1076 1076 1073 1073 1073 1073 1073 1073 1073 1076 1076 1076 1073 1073 1073 1069 1069 1069 1069 1069 1069 1069 1069 1069 1069 1069 1069 1066 1066 1066 1066 1066 1066 1066 1066 1066 1066 1063 1063 1063 1063 1060 1060 1060 1060 1060 1060 1056 1056 1056 1056 1056 1056 1056 1056 1060 1060 1060 1056 1056 1056 1056 1056 1053 1053 1053 1053 1053 1053 1053 1053 1053 1053 1053 1056 1056 1056 1056 1053 1056 1053 1053 1056 1056 1053 1056 1056 1053 1056 1053 1050 1050 1050 1050 1047 1047 1047 1047 1050 1047 1047 1047 1047 1047 1047 1047 1047 1047 1047 1047 1047 1047 1044 1044 1044 1044 1044 1044 1044 1044 1044 1044 1044 1044 1044 1044 1044 1044 1044 1044 1044 1044 1044 1044 1044 1040 1040 1040 1040 1040 1040 1040 1040 1040 1040 1040 1037 1037 1037 1037 1037 1034 1034 1034 1034 1034 1034 1034 1034 1034 1034 1034 1031 1031 1031 1028 1031 1031 1028 1028 1028 1028 1028 1028 1025 1025 1025 1025 1025 1025 1025 1025 1025 1025 1025 1025 1025 1025 1025 1025 1025 1025 1022 1022 1022 1022 1022 1022 1022 1022 1022 1022 1022 1019 1022 1022 1022 1022 1022 1022 1019 1019 1019 1022 1019 1019 1019 1019 1019 1016 1016 1016 1016 1016 1016 1016 1016 1016 1016 1016 1016 1016 1016 1016 1013 1013 1013 1013 1013 1013 1013 1013 1013 1013 1013 1013 1013 1013 1010 1010 1010 1010 1010 1007 1007 1007 1007 1004 1004 1004 1004 1004 1004 1007 1007 1007 1007 1007 1007 1004 1004 1007 1007 1007 1007 1007 1007 1007 1007 1007 1007 1007 1007 1007 1004 1004 1004 1004 1004 1004 1004 1004 1004 1004 1004 1001 1001 1001 1001  998  998  998  995  995  995  995  995  995  995  993  993  993  990  993  993  993  993  993  993  993  993  993  993  993  993  990  990  990  990  990  987  987  987  987  987  987  984  987  987  987  987  987  987  987  987  987  987  987  987  987  987  987  987  987  987  984  984  984  984  981  981  981  981  981  984  984  981  981  981  981  981  976  976  976  976  978  976  976  976  976  978  978  976  976  976  976  976
